0.0246929 0.0802997 0.0714535 0 255 0
0.0243968 0.0801845 0.0709675 0 255 0
0.0240761 0.0800725 0.0704809 0 255 0
0.023794 0.0799554 0.0699953 0 255 0
0.0234677 0.0798442 0.0695084 0 255 0
0.023117 0.0797364 0.069021 0 255 0
0.0227575 0.0796298 0.0685332 0 255 0
0.0223635 0.079528 0.0680445 0 255 0
0.021946 0.0794294 0.0675551 0 255 0
0.0215473 0.0793281 0.0670663 0 255 0
0.0212097 0.0792185 0.0665792 0 255 0
0.0209274 0.0791014 0.0660935 0 255 0
0.0207274 0.0789729 0.0656102 0 255 0
0.0205989 0.0788347 0.065129 0 255 0
0.0204789 0.0786953 0.064648 0 255 0
0.0203361 0.078559 0.0641663 0 255 0
0.020182 0.0784243 0.0636843 0 255 0
0.0199923 0.0782944 0.0632013 0 255 0
0.0198108 0.0781635 0.0627185 0 255 0
0.0196611 0.0780281 0.0622367 0 255 0
0.0195015 0.0778942 0.0617545 0 255 0
0.0193271 0.0777622 0.061272 0 255 0
0.0191366 0.0776325 0.060789 0 255 0
0.0189582 0.0775011 0.0603063 0 255 0
0.0186932 0.0773816 0.0598212 0 255 0
0.0184324 0.0772615 0.0593363 0 255 0
0.0181839 0.0771397 0.0588516 0 255 0
0.017952 0.0770156 0.0583674 0 255 0
0.0177056 0.0768935 0.0578829 0 255 0
0.0174777 0.076769 0.0573988 0 255 0
0.0171868 0.076653 0.056913 0 255 0
0.0168754 0.0765398 0.0564266 0 255 0
0.0166067 0.0764207 0.0559413 0 255 0
0.0163453 0.0763007 0.0554564 0 255 0
0.0160339 0.0761875 0.05497 0 255 0
0.0157126 0.0760757 0.0544833 0 255 0
0.0152499 0.0759833 0.0539926 0 255 0
0.0147789 0.0758919 0.0535018 0 255 0
0.0144019 0.0757877 0.0530135 0 255 0
0.0141195 0.0756706 0.052528 0 255 0
0.0138149 0.0755564 0.0520418 0 255 0
0.0134401 0.0754519 0.0515536 0 255 0
0.0130419 0.0753507 0.0510647 0 255 0
0.0125699 0.0752595 0.0505738 0 255 0
0.0120907 0.0751693 0.0500827 0 255 0
0.0117042 0.0750664 0.0495942 0 255 0
0.0113072 0.0749649 0.0491054 0 255 0
0.0108546 0.0748711 0.0486151 0 255 0
0.0103951 0.074772 0.0481161 0 255 0
0.0100422 0.0746547 0.0476149 0 255 0
0.00967567 0.0745389 0.047113 0 255 0
0.00919353 0.0744372 0.0466054 0 255 0
0.00838282 0.0743753 0.0460815 0 255 0
0.00791329 0.0742721 0.0455745 0 255 0
0.00751037 0.0741607 0.0450708 0 255 0
0.00712325 0.0740475 0.0445679 0 255 0
0.00676282 0.073931 0.0440664 0 255 0
0.00526851 0.0737918 0.0430248 0 255 0
-0.0145008 0.0728243 0.0318854 0 255 0
-0.0147785 0.0726978 0.0313879 0 255 0
-0.0151019 0.0725769 0.0308882 0 255 0
-0.0423182 0.0712904 0.0154727 0 255 0
-0.0422296 0.0711186 0.0149891 0 255 0
-0.0420252 0.0709334 0.0145141 0 255 0
-0.0417788 0.0707432 0.0140422 0 255 0
-0.041495 0.0705487 0.0135728 0 255 0
-0.0412928 0.0703638 0.0130976 0 255 0
-0.041106 0.0701807 0.0126212 0 255 0
-0.0409798 0.0700045 0.0121405 0 255 0
-0.0408701 0.0698304 0.0116584 0 255 0
-0.0407415 0.069654 0.0111778 0 255 0
-0.040571 0.0694727 0.0107002 0 255 0
-0.0404448 0.0692966 0.0102194 0 255 0
-0.0403755 0.0691272 0.00973452 0 255 0
-0.0403086 0.0689579 0.00924934 0 255 0
-0.0402866 0.068794 0.00876095 0 255 0
-0.0402938 0.0686335 0.00827033 0 255 0
-0.0403223 0.0684754 0.00777824 0 255 0
-0.0403229 0.0683141 0.00728813 0 255 0
-0.0403091 0.0681511 0.0067991 0 255 0
-0.0402812 0.0679865 0.00631117 0 255 0
-0.0402452 0.0678209 0.00582374 0 255 0
-0.0402485 0.0676599 0.00533343 0 255 0
-0.0402985 0.0675043 0.00483981 0 255 0
-0.040381 0.0673526 0.00434367 0 255 0
-0.0404774 0.0672024 0.0038466 0 255 0
-0.0406195 0.0670576 0.00334619 0 255 0
-0.0407397 0.0669103 0.00284735 0 255 0
-0.0408492 0.0667617 0.00234932 0 255 0
-0.0410206 0.0666203 0.00184679 0 255 0
-0.0412103 0.0664811 0.00134288 0 255 0
-0.0414149 0.0663435 0.00083784 0 255 0
-0.0416649 0.0662113 0.000329536 0 255 0
-0.0419161 0.0660792 -0.000178847 0 255 0
-0.0421614 0.0659465 -0.000686867 0 255 0
-0.0423941 0.0658122 -0.00119392 0 255 0
-0.0425799 0.0656725 -0.00169755 0 255 0
-0.0426681 0.0655215 -0.00219408 0 255 0
-0.0425427 0.0653454 -0.00267495 0 255 0
-0.042139 0.065137 -0.00313538 0 255 0
-0.0409743 0.0648397 -0.00354023 0 255 0
-0.0401997 0.064588 -0.00397362 0 255 0
-0.0396981 0.0643681 -0.00442694 0 255 0
-0.0392569 0.0641552 -0.00488463 0 255 0
-0.0389009 0.0639523 -0.00534863 0 255 0
-0.0386523 0.0637619 -0.00582052 0 255 0
-0.0384401 0.0635757 -0.00629501 0 255 0
-0.0382609 0.0633935 -0.00677195 0 255 0
-0.0381296 0.0632168 -0.00725227 0 255 0
-0.038016 0.0630422 -0.00773408 0 255 0
-0.0379394 0.0628719 -0.00821848 0 255 0
-0.0379583 0.0627126 -0.00870993 0 255 0
-0.0379786 0.0625537 -0.00920142 0 255 0
-0.0379469 0.0623885 -0.00968918 0 255 0
-0.0379524 0.0622278 -0.0101796 0 255 0
-0.0379838 0.0620701 -0.0106719 0 255 0
-0.0380889 0.061921 -0.0111696 0 255 0
-0.0383058 0.0617849 -0.0116755 0 255 0
-0.0386288 0.0616612 -0.0121892 0 255 0
-0.0389216 0.061534 -0.0127007 0 255 0
-0.0393354 0.0614209 -0.0132209 0 255 0
-0.0543429 0.0607158 -0.0217737 0 255 0
-0.0547235 0.060594 -0.0223059 0 255 0
-0.0549747 0.0604581 -0.0228259 0 255 0
-0.0551347 0.0603122 -0.0233372 0 255 0
-0.055293 0.060166 -0.0238483 0 255 0
-0.0555942 0.0600355 -0.0243729 0 255 0
-0.0559053 0.0599061 -0.0248985 0 255 0
-0.0560567 0.0597593 -0.0254089 0 255 0
-0.056197 0.0596112 -0.0259183 0 255 0
-0.0564081 0.0594709 -0.0264344 0 255 0
-0.0567173 0.0593413 -0.0269598 0 255 0
-0.0571359 0.0592236 -0.0274957 0 255 0
-0.0575029 0.0591003 -0.0280266 0 255 0
-0.0578718 0.0589772 -0.0285577 0 255 0
-0.0582119 0.0588509 -0.0290861 0 255 0
-0.058602 0.0587302 -0.0296192 0 255 0
-0.0589572 0.0586057 -0.0301489 0 255 0
-0.0592963 0.0584793 -0.0306772 0 255 0
-0.059574 0.0583463 -0.0311997 0 255 0
-0.0599563 0.0582246 -0.0317321 0 255 0
-0.0626953 0.0578703 -0.0339766 0 255 0
-0.0632089 0.0577631 -0.0345214 0 255 0
-0.0639145 0.0576767 -0.0350846 0 255 0
0.00963021 0.0928404 0.100935 0 255 0
0.0127432 0.0922565 0.100545 0 255 0
0.0147325 0.0918274 0.100124 0 255 0
0.0154935 0.091567 0.0996676 0 255 0
0.0161667 0.0913188 0.0992088 0 255 0
0.0185205 0.0908394 0.0987975 0 255 0
0.0194044 0.0905621 0.0983447 0 255 0
0.0202165 0.0902948 0.0978899 0 255 0
0.0209086 0.090044 0.0974316 0 255 0
0.0215406 0.0898014 0.0969718 0 255 0
0.02212 0.089566 0.0965104 0 255 0
0.0226636 0.0893356 0.096048 0 255 0
0.023221 0.0891032 0.095586 0 255 0
0.0237131 0.08888 0.0951221 0 255 0
0.0241347 0.0886663 0.0946564 0 255 0
0.0245493 0.0884537 0.0941903 0 255 0
0.0248841 0.0882519 0.0937221 0 255 0
0.0252681 0.0880435 0.0932551 0 255 0
0.0255982 0.0878423 0.0927868 0 255 0
0.0258883 0.0876468 0.0923172 0 255 0
0.0261621 0.0874535 0.0918472 0 255 0
0.026416 0.0872629 0.0913767 0 255 0
0.0267025 0.0870679 0.090907 0 255 0
0.0269279 0.0868812 0.0904356 0 255 0
0.0271454 0.0866957 0.0899641 0 255 0
0.027378 0.086508 0.0894929 0 255 0
0.0275919 0.0863229 0.0890212 0 255 0
0.0278072 0.0861376 0.0885496 0 255 0
0.0280095 0.0859541 0.0880776 0 255 0
0.0281845 0.0857744 0.0876048 0 255 0
0.0283509 0.0855958 0.0871318 0 255 0
0.0285385 0.0854144 0.0866594 0 255 0
0.0286655 0.0852413 0.0861852 0 255 0
0.0287509 0.0850739 0.08571 0 255 0
0.0288597 0.0849032 0.0852353 0 255 0
0.0289362 0.0847371 0.0847597 0 255 0
0.02898 0.0845754 0.0842833 0 255 0
0.028991 0.0844182 0.0838059 0 255 0
0.0289711 0.0842652 0.0833277 0 255 0
0.0289385 0.0841141 0.082849 0 255 0
0.0288772 0.0839668 0.0823696 0 255 0
0.028759 0.0838275 0.0818885 0 255 0
0.0286183 0.0836912 0.0814069 0 255 0
0.0284709 0.0835557 0.080925 0 255 0
0.0283441 0.0834175 0.0804437 0 255 0
0.0282119 0.08328 0.0799623 0 255 0
0.0280666 0.0831443 0.0794805 0 255 0
0.0279362 0.0830066 0.0789991 0 255 0
0.0278711 0.0828599 0.0785195 0 255 0
0.0278584 0.082706 0.0780415 0 255 0
0.0278373 0.0825532 0.0775632 0 255 0
0.0277449 0.0824103 0.0770828 0 255 0
0.02761 0.0822732 0.0766013 0 255 0
0.0273987 0.0821466 0.0761177 0 255 0
0.0272149 0.0820162 0.0756348 0 255 0
0.0269943 0.0818909 0.0751509 0 255 0
0.0267477 0.0817691 0.0746662 0 255 0
0.0264838 0.0816497 0.0741811 0 255 0
0.0262059 0.0815323 0.0736955 0 255 0
0.0259269 0.0814151 0.07321 0 255 0
0.025647 0.0812978 0.0727244 0 255 0
0.0253797 0.0811789 0.0722391 0 255 0
0.0251209 0.0810589 0.0717541 0 255 0
0.0248589 0.0809392 0.071269 0 255 0
0.0245805 0.0808218 0.0707835 0 255 0
0.0242799 0.0807076 0.0702973 0 255 0
0.0239794 0.0805933 0.0698111 0 255 0
0.0236097 0.0804884 0.069323 0 255 0
0.0232388 0.0803838 0.0688348 0 255 0
0.0228746 0.0802782 0.0683469 0 255 0
0.022485 0.0801761 0.0678582 0 255 0
0.0220566 0.0800794 0.0673684 0 255 0
0.021669 0.079977 0.0668798 0 255 0
0.021343 0.0798662 0.0663929 0 255 0
0.0210944 0.0797447 0.0659082 0 255 0
0.0209214 0.0796128 0.0654255 0 255 0
0.0208077 0.0794728 0.0649446 0 255 0
0.0207098 0.0793306 0.0644642 0 255 0
0.020576 0.0791934 0.0639827 0 255 0
0.0204002 0.0790619 0.0635 0 255 0
0.0202028 0.0789333 0.0630168 0 255 0
0.0200129 0.0788039 0.0625337 0 255 0
0.0198442 0.0786714 0.0620512 0 255 0
0.0197098 0.0785342 0.0615697 0 255 0
0.0195382 0.0784021 0.0610872 0 255 0
0.0193445 0.0782731 0.060604 0 255 0
0.0191765 0.0781406 0.0601216 0 255 0
0.0189333 0.0780183 0.059637 0 255 0
0.0186862 0.0778967 0.0591523 0 255 0
0.0184176 0.0777779 0.058667 0 255 0
0.0181102 0.0776645 0.0581807 0 255 0
0.0178173 0.0775491 0.0576947 0 255 0
0.0175645 0.0774283 0.0572099 0 255 0
0.017254 0.0773153 0.0567234 0 255 0
0.0169836 0.0771968 0.0562381 0 255 0
0.0166869 0.077082 0.055752 0 255 0
0.0164102 0.0769643 0.0552665 0 255 0
0.0160944 0.0768522 0.0547799 0 255 0
0.0157252 0.0767472 0.0542918 0 255 0
0.0152446 0.0766576 0.0538006 0 255 0
0.0147886 0.0765647 0.05331 0 255 0
0.0144758 0.0764521 0.0528235 0 255 0
0.0142033 0.0763339 0.0523381 0 255 0
0.0139141 0.076218 0.0518523 0 255 0
0.0135682 0.0761099 0.0513648 0 255 0
0.0132065 0.076004 0.0508769 0 255 0
0.0127614 0.0759096 0.0503866 0 255 0
0.0123004 0.0758173 0.0498959 0 255 0
0.0119089 0.0757155 0.0494072 0 255 0
0.0115418 0.0756103 0.0489191 0 255 0
0.011151 0.0755083 0.0484304 0 255 0
0.0106918 0.0754121 0.0479347 0 255 0
0.0102333 0.0753078 0.0474281 0 255 0
0.00975994 0.0752052 0.0469209 0 255 0
0.00911211 0.0751237 0.0464049 0 255 0
0.00850329 0.0750376 0.0458909 0 255 0
0.00800745 0.0749378 0.0453825 0 255 0
0.00754573 0.0748338 0.0448759 0 255 0
0.0071476 0.0747221 0.0443724 0 255 0
0.00686334 0.0745965 0.0438746 0 255 0
-0.0141472 0.0736267 0.0321864 0 255 0
-0.0144328 0.0735013 0.0316886 0 255 0
-0.0147174 0.0733757 0.0311907 0 255 0
-0.0423311 0.0719963 0.0152626 0 255 0
-0.0422119 0.0718211 0.0147813 0 255 0
-0.042033 0.0716389 0.0143044 0 255 0
-0.0418215 0.0714529 0.0138297 0 255 0
-0.0415655 0.0712617 0.0133584 0 255 0
-0.0413641 0.0710769 0.0128831 0 255 0
-0.0411805 0.0708942 0.0124065 0 255 0
-0.0410468 0.0707173 0.0119262 0 255 0
-0.040926 0.0705419 0.011445 0 255 0
-0.0408012 0.070366 0.0109641 0 255 0
-0.0406485 0.070187 0.0104851 0 255 0
-0.0405196 0.0700106 0.0100045 0 255 0
-0.0404196 0.0698377 0.0095218 0 255 0
-0.0403324 0.0696663 0.00903813 0 255 0
-0.0402698 0.0694978 0.00855269 0 255 0
-0.0402616 0.0693357 0.00806313 0 255 0
-0.0402716 0.0691756 0.00757232 0 255 0
-0.0402819 0.0690156 0.00708146 0 255 0
-0.0402563 0.0688514 0.00659329 0 255 0
-0.0402111 0.068685 0.0061066 0 255 0
-0.0401472 0.0685162 0.00562115 0 255 0
-0.0401172 0.0683516 0.00513325 0 255 0
-0.0400978 0.0681881 0.00464459 0 255 0
-0.0401141 0.0680289 0.0041533 0 255 0
-0.0402245 0.0678806 0.0036551 0 255 0
-0.0403542 0.0677347 0.00315556 0 255 0
-0.0404503 0.0675847 0.00265842 0 255 0
-0.0405537 0.0674357 0.00216077 0 255 0
-0.0406882 0.0672903 0.00166079 0 255 0
-0.0408356 0.0671464 0.00115989 0 255 0
-0.041033 0.0670084 0.000655371 0 255 0
-0.0412293 0.0668702 0.000150874 0 255 0
-0.0414795 0.0667385 -0.00035756 0 255 0
-0.0417034 0.0666036 -0.000864049 0 255 0
-0.0419083 0.0664664 -0.00136916 0 255 0
-0.0421221 0.0663303 -0.00187499 0 255 0
-0.0422866 0.0661884 -0.00237712 0 255 0
-0.0422959 0.0660283 -0.0028679 0 255 0
-0.0420532 0.0658387 -0.00334015 0 255 0
-0.0413684 0.0655971 -0.00377993 0 255 0
-0.0405482 0.0653397 -0.00420987 0 255 0
-0.0399179 0.0651045 -0.00465376 0 255 0
-0.0393741 0.0648795 -0.00510396 0 255 0
-0.0389806 0.0646721 -0.00556517 0 255 0
-0.0386648 0.0644739 -0.00603214 0 255 0
-0.0384126 0.0642831 -0.00650369 0 255 0
-0.0382215 0.0640995 -0.00697974 0 255 0
-0.0380704 0.0639205 -0.00745874 0 255 0
-0.0379454 0.0637447 -0.00793971 0 255 0
-0.0378689 0.0635745 -0.00842418 0 255 0
-0.0378728 0.0634138 -0.00891451 0 255 0
-0.0378764 0.063253 -0.00940484 0 255 0
-0.0378331 0.0630867 -0.00989176 0 255 0
-0.0377972 0.0629214 -0.0103792 0 255 0
-0.0377933 0.0627598 -0.010869 0 255 0
-0.0378561 0.0626059 -0.0113637 0 255 0
-0.0380197 0.0624639 -0.0118657 0 255 0
-0.0382464 0.0623294 -0.0123725 0 255 0
-0.0385034 0.0621984 -0.0128814 0 255 0
-0.0388727 0.0620805 -0.0133985 0 255 0
-0.05472 0.0613203 -0.0225242 0 255 0
-0.0549995 0.0611877 -0.0230469 0 255 0
-0.0551592 0.061042 -0.0235583 0 255 0
-0.0554081 0.0609062 -0.0240781 0 255 0
-0.0557578 0.0607815 -0.0246074 0 255 0
-0.0560472 0.06065 -0.0251311 0 255 0
-0.0562192 0.0605057 -0.0256436 0 255 0
-0.0563603 0.060358 -0.0261531 0 255 0
-0.0566222 0.0602236 -0.0266741 0 255 0
-0.0569841 0.0601001 -0.0272048 0 255 0
-0.0572903 0.0599705 -0.02773 0 255 0
-0.0576051 0.0598419 -0.028256 0 255 0
-0.057921 0.0597134 -0.0287822 0 255 0
-0.058251 0.0595866 -0.0293098 0 255 0
-0.0586369 0.0594657 -0.0298426 0 255 0
-0.0590226 0.0593449 -0.0303755 0 255 0
-0.0593005 0.0592123 -0.030898 0 255 0
-0.0595626 0.0590778 -0.0314191 0 255 0
-0.0598817 0.0589497 -0.0319456 0 255 0
-0.0639279 0.0584152 -0.0353076 0 255 0
0.010184 0.0934251 0.100762 0 255 0
0.0112416 0.0931236 0.100314 0 255 0
0.0149342 0.092458 0.0999414 0 255 0
0.0157048 0.092196 0.0994854 0 255 0
0.016404 0.091944 0.0990275 0 255 0
0.0189951 0.0914307 0.0986232 0 255 0
0.0197579 0.0911698 0.098167 0 255 0
0.020455 0.090918 0.097709 0 255 0
0.0210844 0.0906756 0.0972491 0 255 0
0.0216822 0.0904375 0.0967882 0 255 0
0.0223203 0.0901938 0.0963287 0 255 0
0.0228005 0.089972 0.0958645 0 255 0
0.0233422 0.0897418 0.0954021 0 255 0
0.023857 0.0895151 0.094939 0 255 0
0.024308 0.0892973 0.094474 0 255 0
0.0247373 0.0890826 0.0940084 0 255 0
0.0250997 0.088877 0.0935409 0 255 0
0.0254644 0.0886711 0.0930734 0 255 0
0.025817 0.0884669 0.0926057 0 255 0
0.026122 0.0882692 0.0921366 0 255 0
0.0264004 0.0880753 0.0916667 0 255 0
0.0266549 0.0878846 0.0911962 0 255 0
0.0269361 0.0876902 0.0907264 0 255 0
0.0271659 0.087503 0.0902552 0 255 0
0.0273782 0.0873182 0.0897834 0 255 0
0.0276141 0.0871301 0.0893123 0 255 0
0.0278186 0.0869464 0.0888404 0 255 0
0.0279941 0.0867667 0.0883677 0 255 0
0.028172 0.0865866 0.0878949 0 255 0
0.028337 0.0864083 0.0874218 0 255 0
0.0285103 0.0862289 0.086949 0 255 0
0.0286829 0.0860496 0.0864761 0 255 0
0.0287988 0.085878 0.0860017 0 255 0
0.0288909 0.0857098 0.0855265 0 255 0
0.0289882 0.0855409 0.0850516 0 255 0
0.0290581 0.0853757 0.0845758 0 255 0
0.0291069 0.0852134 0.0840994 0 255 0
0.0291287 0.0850549 0.0836223 0 255 0
0.0291248 0.0849 0.0831445 0 255 0
0.0291081 0.0847468 0.0826662 0 255 0
0.0290688 0.0845967 0.0821874 0 255 0
0.0289904 0.0844521 0.0817073 0 255 0
0.0288812 0.0843116 0.0812266 0 255 0
0.0286918 0.0841823 0.0807434 0 255 0
0.0285191 0.0840506 0.0802608 0 255 0
0.0283288 0.0839214 0.0797776 0 255 0
0.0281633 0.0837888 0.0792952 0 255 0
0.0280488 0.0836491 0.0788142 0 255 0
0.0279968 0.0835008 0.078335 0 255 0
0.0279886 0.0833464 0.077857 0 255 0
0.0279504 0.0831962 0.0773781 0 255 0
0.0278321 0.083057 0.0768971 0 255 0
0.0276518 0.0829264 0.0764142 0 255 0
0.0274499 0.0827988 0.0759308 0 255 0
0.0272593 0.0826696 0.0754476 0 255 0
0.0270413 0.0825442 0.0749637 0 255 0
0.0268229 0.0824189 0.0744798 0 255 0
0.0265416 0.0823022 0.073994 0 255 0
0.0262631 0.0821853 0.0735084 0 255 0
0.0259771 0.0820693 0.0730225 0 255 0
0.0257225 0.0819489 0.0725376 0 255 0
0.0254726 0.0818279 0.0720527 0 255 0
0.0252424 0.0817042 0.0715685 0 255 0
0.0249859 0.0815841 0.0710835 0 255 0
0.0247141 0.0814662 0.070598 0 255 0
0.0244186 0.0813515 0.0701119 0 255 0
0.0241188 0.0812374 0.0696257 0 255 0
0.0237496 0.0811329 0.0691375 0 255 0
0.0233733 0.0810293 0.068649 0 255 0
0.0230149 0.0809234 0.0681611 0 255 0
0.0226169 0.0808229 0.0676721 0 255 0
0.0221745 0.0807284 0.0671819 0 255 0
0.021767 0.0806292 0.0666925 0 255 0
0.0214538 0.080517 0.0662059 0 255 0
0.0212207 0.0803936 0.0657216 0 255 0
0.0210952 0.0802555 0.0652403 0 255 0
0.0209822 0.0801156 0.0647593 0 255 0
0.020876 0.0799748 0.0642786 0 255 0
0.0207348 0.0798387 0.0637968 0 255 0
0.0205463 0.0797093 0.0633138 0 255 0
0.0203643 0.079579 0.0628308 0 255 0
0.0201592 0.0794517 0.0623473 0 255 0
0.0199725 0.079322 0.0618643 0 255 0
0.0198412 0.0791847 0.0613828 0 255 0
0.0196769 0.0790519 0.0609004 0 255 0
0.0194953 0.0789215 0.0604175 0 255 0
0.0193266 0.0787893 0.0599349 0 255 0
0.0191118 0.0786635 0.0594511 0 255 0
0.018876 0.0785405 0.0589667 0 255 0
0.0186258 0.0784195 0.0584818 0 255 0
0.0183099 0.0783077 0.0579951 0 255 0
0.0179863 0.0781968 0.0575082 0 255 0
0.017732 0.0780765 0.0570233 0 255 0
0.017451 0.0779598 0.0565376 0 255 0
0.0172036 0.0778385 0.0560528 0 255 0
0.0169076 0.0777238 0.0555667 0 255 0
0.0165959 0.0776114 0.0550801 0 255 0
0.0162424 0.0775048 0.0545923 0 255 0
0.0158044 0.0774097 0.0541022 0 255 0
0.0153058 0.0773231 0.0536103 0 255 0
0.0148679 0.0772281 0.0531201 0 255 0
0.014566 0.0771143 0.0526339 0 255 0
0.014269 0.0769998 0.0521477 0 255 0
0.0139882 0.0768831 0.051662 0 255 0
0.0136572 0.0767733 0.0511749 0 255 0
0.0133098 0.0766658 0.0506872 0 255 0
0.0128723 0.0765707 0.0501972 0 255 0
0.0123937 0.0764813 0.0497058 0 255 0
0.0120058 0.0763794 0.0492171 0 255 0
0.0116408 0.0762742 0.048729 0 255 0
0.0113193 0.0761632 0.0482421 0 255 0
0.0108891 0.0760642 0.0477484 0 255 0
0.0103612 0.0759684 0.0472383 0 255 0
0.00976991 0.0758805 0.0467251 0 255 0
0.00913873 0.0757973 0.0462098 0 255 0
0.0086683 0.0756945 0.0457026 0 255 0
0.00817376 0.0755948 0.0451942 0 255 0
0.00766893 0.0754963 0.0446853 0 255 0
0.00725577 0.0753865 0.0441809 0 255 0
-0.0136228 0.074408 0.0324962 0 255 0
-0.0141223 0.0743089 0.0319875 0 255 0
-0.0143346 0.0741746 0.0314932 0 255 0
-0.0145971 0.0740466 0.0309964 0 255 0
-0.0426527 0.0729 0.0155198 0 255 0
-0.0424667 0.072717 0.0150434 0 255 0
-0.0423012 0.0725365 0.0145655 0 255 0
-0.0420866 0.0723502 0.0140911 0 255 0
-0.0419159 0.072169 0.0136136 0 255 0
-0.0416865 0.0719809 0.0131402 0 255 0
-0.0415043 0.0717983 0.0126635 0 255 0
-0.0412864 0.0716116 0.0121894 0 255 0
-0.0411367 0.071433 0.0117102 0 255 0
-0.0410225 0.0712585 0.0112286 0 255 0
-0.040889 0.0710817 0.0107482 0 255 0
-0.040735 0.0709026 0.0102694 0 255 0
-0.0406488 0.0707314 0.0097856 0 255 0
-0.0405088 0.0705539 0.00930573 0 255 0
-0.0403971 0.0703797 0.00882386 0 255 0
-0.0403118 0.0702087 0.00834005 0 255 0
-0.0402657 0.0700422 0.00785325 0 255 0
-0.0402323 0.0698773 0.00736556 0 255 0
-0.0402336 0.0697165 0.00687533 0 255 0
-0.0402177 0.0695536 0.00638642 0 255 0
-0.0401655 0.0693864 0.00590014 0 255 0
-0.0400655 0.0692137 0.00541733 0 255 0
-0.0399983 0.0690447 0.00493209 0 255 0
-0.0399677 0.0688802 0.0044442 0 255 0
-0.0399412 0.068716 0.00395607 0 255 0
-0.0400155 0.0685638 0.0034604 0 255 0
-0.0401248 0.0684157 0.00296228 0 255 0
-0.0401999 0.0682636 0.00246663 0 255 0
-0.0402786 0.0681119 0.00197075 0 255 0
-0.0403625 0.0679608 0.00147444 0 255 0
-0.0404579 0.0678111 0.000977261 0 255 0
-0.0406163 0.0676689 0.000475492 0 255 0
-0.0408215 0.0675321 -2.97227e-05 0 255 0
-0.0410278 0.0673955 -0.000535016 0 255 0
-0.0412329 0.0672587 -0.00104018 0 255 0
-0.0414802 0.0671269 -0.00154852 0 255 0
-0.0416783 0.0669893 -0.00205324 0 255 0
-0.0418619 0.0668501 -0.00255688 0 255 0
-0.0419888 0.066704 -0.00305641 0 255 0
-0.0418938 0.0665318 -0.00353949 0 255 0
-0.0415546 0.0663307 -0.00400466 0 255 0
-0.0408776 0.0660899 -0.00444505 0 255 0
-0.0402341 0.0658528 -0.00488782 0 255 0
-0.0396464 0.0656225 -0.00533483 0 255 0
-0.0391829 0.0654067 -0.00579082 0 255 0
-0.0387842 0.0651986 -0.00625161 0 255 0
-0.0384419 0.0649972 -0.00671661 0 255 0
-0.0382232 0.0648104 -0.00719062 0 255 0
-0.0380446 0.0646283 -0.0076677 0 255 0
-0.0379192 0.0644525 -0.00814852 0 255 0
-0.0378448 0.0642827 -0.00863321 0 255 0
-0.0378184 0.0641187 -0.00912142 0 255 0
-0.0377792 0.063953 -0.00960866 0 255 0
-0.0377147 0.0637845 -0.010094 0 255 0
-0.0376623 0.0636173 -0.0105803 0 255 0
-0.0376491 0.0634547 -0.0110695 0 255 0
-0.0376979 0.0632995 -0.0115632 0 255 0
-0.0378072 0.0631514 -0.0120614 0 255 0
-0.0379564 0.0630081 -0.0125625 0 255 0
-0.0382077 0.0628768 -0.0130711 0 255 0
-0.0385169 0.0627523 -0.0135839 0 255 0
-0.0388878 0.0626351 -0.0141014 0 255 0
-0.0548902 0.0619028 -0.0232552 0 255 0
-0.0551298 0.0617662 -0.0237742 0 255 0
-0.0555052 0.0616447 -0.0243062 0 255 0
-0.0559461 0.0615305 -0.0248445 0 255 0
-0.056225 0.0613982 -0.0253673 0 255 0
-0.0563906 0.0612535 -0.0258791 0 255 0
-0.0565784 0.0611112 -0.0263932 0 255 0
-0.0569097 0.0609848 -0.0269211 0 255 0
-0.0572126 0.0608553 -0.0274461 0 255 0
-0.0574413 0.0607176 -0.0279641 0 255 0
-0.0576851 0.0605815 -0.0284835 0 255 0
-0.0579499 0.0604477 -0.0290049 0 255 0
-0.0583311 0.0603268 -0.0295375 0 255 0
-0.0587199 0.0602067 -0.0300707 0 255 0
-0.0590275 0.0600777 -0.0305963 0 255 0
-0.0592555 0.0599399 -0.0311142 0 255 0
-0.0595411 0.0598084 -0.0316376 0 255 0
-0.0598651 0.0596812 -0.0321647 0 255 0
-0.0640709 0.059168 -0.0355431 0 255 0
-0.0645521 0.0590582 -0.0360852 0 255 0
-0.00618807 0.0965124 0.100585 0 255 0
0.0105405 0.0940367 0.100584 0 255 0
0.0112293 0.0937858 0.100125 0 255 0
0.0152124 0.093078 0.0997611 0 255 0
0.01596 0.092819 0.0993046 0 255 0
0.0184378 0.0923199 0.0988973 0 255 0
0.0192523 0.0920516 0.0984427 0 255 0
0.020009 0.0917913 0.0979865 0 255 0
0.0206288 0.09155 0.0975264 0 255 0
0.0212057 0.0913147 0.097065 0 255 0
0.0217777 0.09108 0.0966035 0 255 0
0.0223934 0.0908392 0.0961433 0 255 0
0.022875 0.090617 0.0956792 0 255 0
0.0233615 0.0903943 0.0952152 0 255 0
0.0238997 0.0901642 0.0947528 0 255 0
0.0243558 0.0899456 0.0942879 0 255 0
0.024766 0.0897334 0.0938219 0 255 0
0.0251899 0.0895192 0.0933561 0 255 0
0.0255272 0.0893172 0.092888 0 255 0
0.0258829 0.0891125 0.0924203 0 255 0
0.0261916 0.0889143 0.0919513 0 255 0
0.0264562 0.0887223 0.0914811 0 255 0
0.0267395 0.0885277 0.0910113 0 255 0
0.0270313 0.0883319 0.0905419 0 255 0
0.027254 0.0881456 0.0900704 0 255 0
0.0274607 0.0879615 0.0895985 0 255 0
0.0276846 0.0877752 0.0891271 0 255 0
0.0278861 0.0875919 0.088655 0 255 0
0.0280322 0.0874163 0.0881814 0 255 0
0.0282011 0.0872375 0.0877085 0 255 0
0.0283767 0.0870578 0.0872356 0 255 0
0.0285348 0.0868806 0.0867623 0 255 0
0.0287057 0.0867015 0.0862894 0 255 0
0.028845 0.0865269 0.0858156 0 255 0
0.0289181 0.0863614 0.0853399 0 255 0
0.0289855 0.0861967 0.084864 0 255 0
0.0290738 0.0860291 0.0843887 0 255 0
0.0291424 0.0858642 0.0839129 0 255 0
0.0291769 0.0857041 0.0834361 0 255 0
0.0291838 0.0855478 0.0829585 0 255 0
0.0291802 0.085393 0.0824806 0 255 0
0.0291623 0.0852401 0.0820024 0 255 0
0.029129 0.0850894 0.0815236 0 255 0
0.0290471 0.0849455 0.0810435 0 255 0
0.0288954 0.0848112 0.0805614 0 255 0
0.028717 0.0846805 0.0800785 0 255 0
0.0285134 0.0845535 0.0795949 0 255 0
0.0283161 0.0844255 0.0791116 0 255 0
0.0281827 0.0842886 0.0786299 0 255 0
0.0281098 0.0841434 0.0781501 0 255 0
0.028076 0.0839927 0.0776714 0 255 0
0.0280064 0.083847 0.0771916 0 255 0
0.0278739 0.0837101 0.07671 0 255 0
0.0276566 0.0835849 0.076226 0 255 0
0.0274784 0.0834543 0.0757432 0 255 0
0.0272826 0.0833261 0.0752598 0 255 0
0.0270552 0.0832023 0.0747756 0 255 0
0.0267936 0.0830833 0.0742903 0 255 0
0.0265243 0.0829652 0.0738048 0 255 0
0.0262652 0.0828459 0.0733197 0 255 0
0.0260173 0.0827249 0.0728349 0 255 0
0.0258081 0.0825986 0.0723511 0 255 0
0.0255832 0.0824745 0.0718669 0 255 0
0.0253565 0.0823506 0.0713827 0 255 0
0.0250939 0.0822316 0.0708974 0 255 0
0.0248341 0.0821124 0.0704122 0 255 0
0.0245332 0.0819988 0.0699258 0 255 0
0.0242214 0.0818866 0.0694392 0 255 0
0.0238616 0.0817812 0.0689511 0 255 0
0.0234827 0.0816784 0.0684626 0 255 0
0.0230922 0.0815773 0.0679736 0 255 0
0.0226697 0.0814805 0.0674838 0 255 0
0.0222426 0.0813844 0.0669939 0 255 0
0.0218702 0.0812807 0.0665055 0 255 0
0.0215733 0.0811665 0.0660192 0 255 0
0.0213636 0.0810403 0.0655355 0 255 0
0.021255 0.0809 0.0650546 0 255 0
0.0211338 0.0807615 0.0645734 0 255 0
0.0210073 0.0806237 0.064092 0 255 0
0.0208502 0.0804902 0.0636097 0 255 0
0.0206641 0.0803607 0.0631266 0 255 0
0.0204818 0.0802306 0.0626437 0 255 0
0.0202717 0.0801044 0.0621599 0 255 0
0.0200965 0.0799734 0.0616771 0 255 0
0.019948 0.0798386 0.0611951 0 255 0
0.0197834 0.0797061 0.0607126 0 255 0
0.0196112 0.0795746 0.06023 0 255 0
0.0194347 0.0794438 0.0597471 0 255 0
0.0192185 0.0793184 0.0592632 0 255 0
0.0189914 0.0791946 0.0587789 0 255 0
0.0187451 0.0790734 0.0582941 0 255 0
0.0184449 0.0789597 0.0578078 0 255 0
0.0181256 0.0788487 0.0573209 0 255 0
0.0178824 0.0787271 0.0568362 0 255 0
0.0176318 0.0786065 0.0563513 0 255 0
0.0173842 0.0784856 0.0558664 0 255 0
0.0171062 0.0783688 0.0553807 0 255 0
0.0168152 0.0782538 0.0548946 0 255 0
0.0164504 0.078149 0.0544065 0 255 0
0.0160073 0.0780552 0.053916 0 255 0
0.0154775 0.0779733 0.0534232 0 255 0
0.0150492 0.0778773 0.0529332 0 255 0
0.0147082 0.0777693 0.0524457 0 255 0
0.0143722 0.0776606 0.0519583 0 255 0
0.0140783 0.077546 0.0514722 0 255 0
0.013747 0.0774366 0.0509849 0 255 0
0.0133891 0.0773309 0.050497 0 255 0
0.0129236 0.0772401 0.050006 0 255 0
0.0124106 0.0771559 0.0495136 0 255 0
0.0120193 0.0770549 0.0490246 0 255 0
0.0116483 0.0769511 0.0485363 0 255 0
0.0113194 0.0768413 0.0480491 0 255 0
0.0109001 0.076739 0.0475527 0 255 0
0.0104339 0.0766359 0.0470457 0 255 0
0.00984317 0.0765481 0.0465323 0 255 0
0.00914047 0.0764739 0.0460134 0 255 0
0.00867391 0.0763709 0.0455063 0 255 0
0.00828573 0.0762584 0.0450031 0 255 0
-0.0131769 0.0751985 0.0328022 0 255 0
-0.0138107 0.0751159 0.0322867 0 255 0
-0.0141776 0.0750008 0.0317846 0 255 0
-0.0143453 0.0748614 0.0312924 0 255 0
-0.0429122 0.0736357 0.0152914 0 255 0
-0.042666 0.0734456 0.0148194 0 255 0
-0.0424489 0.0732591 0.0143452 0 255 0
-0.0422801 0.0730782 0.0138674 0 255 0
-0.0421349 0.0729002 0.013388 0 255 0
-0.0419129 0.072713 0.0129142 0 255 0
-0.0416571 0.0725218 0.0124428 0 255 0
-0.0414508 0.0723365 0.0119679 0 255 0
-0.0412406 0.0721507 0.0114932 0 255 0
-0.0410934 0.0719725 0.0110138 0 255 0
-0.0410175 0.0718027 0.0105293 0 255 0
-0.0409064 0.0716287 0.0100472 0 255 0
-0.0407683 0.0714515 0.00956723 0 255 0
-0.0406261 0.0712738 0.00908752 0 255 0
-0.0404738 0.0710949 0.00860863 0 255 0
-0.0403366 0.0709178 0.00812857 0 255 0
-0.040256 0.0707475 0.00764431 0 255 0
-0.0402224 0.0705827 0.00715659 0 255 0
-0.0402235 0.070422 0.00666628 0 255 0
-0.0402106 0.0702597 0.00617712 0 255 0
-0.040133 0.0700897 0.00569267 0 255 0
-0.04002 0.0699154 0.00521082 0 255 0
-0.0399095 0.0697415 0.00472876 0 255 0
-0.039876 0.0695767 0.00424107 0 255 0
-0.0398645 0.0694146 0.00375168 0 255 0
-0.0399077 0.0692589 0.00325837 0 255 0
-0.039949 0.0691031 0.00276507 0 255 0
-0.0399952 0.0689477 0.00227157 0 255 0
-0.0400588 0.0687945 0.0017767 0 255 0
-0.0401001 0.0686387 0.00128348 0 255 0
-0.0401621 0.0684853 0.000788686 0 255 0
-0.0402688 0.0683371 0.000290663 0 255 0
-0.0404214 0.0681944 -0.000210824 0 255 0
-0.0406229 0.0680576 -0.00071586 0 255 0
-0.0408716 0.0679263 -0.00122438 0 255 0
-0.0410918 0.0677917 -0.00173072 0 255 0
-0.0412871 0.0676541 -0.00223535 0 255 0
-0.0415004 0.0675186 -0.00274122 0 255 0
-0.0416723 0.0673783 -0.00324413 0 255 0
-0.041715 0.0672226 -0.00373745 0 255 0
-0.0415892 0.0670468 -0.00421836 0 255 0
-0.0411291 0.0668314 -0.00467462 0 255 0
-0.040472 0.0665925 -0.00511633 0 255 0
-0.0398857 0.0663621 -0.00556325 0 255 0
-0.0393697 0.06614 -0.00601541 0 255 0
-0.0389399 0.0659282 -0.00647397 0 255 0
-0.038589 0.0657256 -0.00693825 0 255 0
-0.0383215 0.0655331 -0.0074087 0 255 0
-0.0381337 0.06535 -0.00788505 0 255 0
-0.0379683 0.0651696 -0.00836306 0 255 0
-0.0378634 0.0649963 -0.00884545 0 255 0
-0.0377925 0.064827 -0.00933041 0 255 0
-0.0377158 0.0646572 -0.00981502 0 255 0
-0.0376502 0.0644886 -0.0103003 0 255 0
-0.0375715 0.0643185 -0.0107847 0 255 0
-0.037546 0.0641547 -0.011273 0 255 0
-0.0375493 0.0639942 -0.0117635 0 255 0
-0.0376371 0.0638439 -0.01226 0 255 0
-0.0377496 0.0636964 -0.0127585 0 255 0
-0.0379248 0.0635565 -0.0132616 0 255 0
-0.0381697 0.0634247 -0.0137699 0 255 0
-0.0384059 0.0632921 -0.0142774 0 255 0
-0.0387076 0.0631671 -0.0147899 0 255 0
-0.0555254 0.062375 -0.0245272 0 255 0
-0.0560297 0.0622682 -0.0250716 0 255 0
-0.0564225 0.0621491 -0.0256054 0 255 0
-0.0566907 0.062016 -0.0261273 0 255 0
-0.056927 0.0618795 -0.0266461 0 255 0
-0.0571917 0.0617461 -0.0271676 0 255 0
-0.0573737 0.0616034 -0.0276812 0 255 0
-0.0575206 0.0614569 -0.0281915 0 255 0
-0.0577237 0.0613166 -0.0287071 0 255 0
-0.0580233 0.0611871 -0.029232 0 255 0
-0.0583945 0.0610656 -0.0297637 0 255 0
-0.0588202 0.06095 -0.0303006 0 255 0
-0.0590433 0.060812 -0.0308182 0 255 0
-0.0592889 0.0606764 -0.0313379 0 255 0
-0.0595872 0.0605468 -0.0318626 0 255 0
-0.0599607 0.0604254 -0.0323945 0 255 0
-0.0641741 0.0599169 -0.0357749 0 255 0
-0.0645922 0.0598005 -0.0363111 0 255 0
-0.00527571 0.097056 0.10042 0 255 0
0.010937 0.0946424 0.100406 0 255 0
0.0113473 0.0944302 0.0999401 0 255 0
0.0154158 0.0937082 0.0995788 0 255 0
0.0161248 0.0934542 0.0991212 0 255 0
0.018681 0.092943 0.0987164 0 255 0
0.0193641 0.0926927 0.0982582 0 255 0
0.0200096 0.0924476 0.0977989 0 255 0
0.0206606 0.0922017 0.0973397 0 255 0
0.0212841 0.0919597 0.0968796 0 255 0
0.0218455 0.0917263 0.0964179 0 255 0
0.0223819 0.0914964 0.0959554 0 255 0
0.0228708 0.0912732 0.0954917 0 255 0
0.0233826 0.0910467 0.0950285 0 255 0
0.0238923 0.0908205 0.0945652 0 255 0
0.0243449 0.0906023 0.0941003 0 255 0
0.0247089 0.0903964 0.0936329 0 255 0
0.0251555 0.090179 0.0931679 0 255 0
0.025501 0.0899757 0.0926999 0 255 0
0.0258427 0.0897729 0.0922319 0 255 0
0.0261621 0.0895732 0.0917632 0 255 0
0.0263962 0.0893854 0.0912921 0 255 0
0.0266698 0.0891922 0.090822 0 255 0
0.0269674 0.0889955 0.0903527 0 255 0
0.0271948 0.0888087 0.0898815 0 255 0
0.0274133 0.0886231 0.0894099 0 255 0
0.0276326 0.0884374 0.0889383 0 255 0
0.0278235 0.0882556 0.088466 0 255 0
0.0280053 0.0880751 0.0879933 0 255 0
0.0281529 0.0878993 0.0875197 0 255 0
0.0283062 0.0877228 0.0870463 0 255 0
0.0284784 0.0875436 0.0865734 0 255 0
0.0286183 0.0873689 0.0860995 0 255 0
0.0287551 0.0871948 0.0856256 0 255 0
0.0288502 0.0870263 0.0851505 0 255 0
0.0289307 0.0868599 0.0846751 0 255 0
0.0290225 0.0866919 0.0841998 0 255 0
0.0290951 0.0865267 0.083724 0 255 0
0.0291452 0.0863645 0.0832477 0 255 0
0.0291802 0.0862045 0.0827709 0 255 0
0.029209 0.0860452 0.0822938 0 255 0
0.0292032 0.0858909 0.0818158 0 255 0
0.0291806 0.0857389 0.0813374 0 255 0
0.02913 0.0855907 0.0808581 0 255 0
0.0290168 0.0854513 0.0803771 0 255 0
0.0288824 0.0853149 0.0798954 0 255 0
0.0287054 0.0851844 0.0794125 0 255 0
0.0284955 0.0850584 0.0789286 0 255 0
0.0283334 0.0849258 0.0784461 0 255 0
0.0282198 0.0847864 0.0779651 0 255 0
0.0281352 0.0846431 0.0774848 0 255 0
0.0280443 0.0845005 0.0770044 0 255 0
0.0279094 0.0843642 0.0765227 0 255 0
0.0277232 0.084235 0.0760395 0 255 0
0.0275235 0.0841076 0.075556 0 255 0
0.0272998 0.0839835 0.0750718 0 255 0
0.0270776 0.0838593 0.0745876 0 255 0
0.0267887 0.0837444 0.0741015 0 255 0
0.0265481 0.0836227 0.0736168 0 255 0
0.0263139 0.0835002 0.0731322 0 255 0
0.0261202 0.083372 0.0726489 0 255 0
0.0259277 0.0832436 0.0721655 0 255 0
0.0256948 0.0831209 0.0716811 0 255 0
0.0254537 0.0829993 0.0711963 0 255 0
0.0251657 0.0828842 0.0707103 0 255 0
0.024895 0.0827668 0.0702246 0 255 0
0.0245777 0.0826558 0.0697377 0 255 0
0.0242529 0.0825459 0.0692506 0 255 0
0.0239129 0.0824381 0.0687631 0 255 0
0.0234997 0.0823404 0.0682734 0 255 0
0.0230447 0.0822486 0.0677826 0 255 0
0.0226484 0.0821486 0.0672934 0 255 0
0.0223166 0.0820396 0.0668061 0 255 0
0.0219941 0.0819294 0.066319 0 255 0
0.021713 0.0818133 0.0658332 0 255 0
0.0215051 0.0816872 0.0653494 0 255 0
0.0213914 0.0815478 0.0648683 0 255 0
0.0212925 0.0814065 0.0643876 0 255 0
0.0211683 0.0812686 0.0639062 0 255 0
0.0210053 0.081136 0.0634238 0 255 0
0.0208118 0.0810079 0.0629404 0 255 0
0.0206284 0.0808782 0.0624573 0 255 0
0.0204402 0.0807493 0.0619741 0 255 0
0.0202671 0.0806182 0.0614913 0 255 0
0.020099 0.0804865 0.0610087 0 255 0
0.0199148 0.080357 0.0605256 0 255 0
0.0197346 0.0802268 0.0600426 0 255 0
0.0195364 0.0800992 0.0595591 0 255 0
0.019289 0.0799785 0.0590742 0 255 0
0.019073 0.0798535 0.0585901 0 255 0
0.0188173 0.0797339 0.058105 0 255 0
0.0185059 0.0796221 0.0576183 0 255 0
0.0182033 0.079509 0.0571318 0 255 0
0.0179808 0.0793849 0.0566476 0 255 0
0.0177522 0.0792615 0.0561632 0 255 0
0.0175129 0.0791397 0.0556785 0 255 0
0.017249 0.0790213 0.0551932 0 255 0
0.0169511 0.0789076 0.0547068 0 255 0
0.0166204 0.0787985 0.0542195 0 255 0
0.016219 0.0786993 0.0537302 0 255 0
0.0157198 0.0786136 0.0532381 0 255 0
0.0152943 0.0785177 0.0527481 0 255 0
0.0149173 0.078415 0.0522595 0 255 0
0.0145513 0.0783108 0.0517712 0 255 0
0.0142208 0.0782017 0.0512839 0 255 0
0.0138583 0.0780971 0.0507957 0 255 0
0.0134533 0.0779982 0.0503063 0 255 0
0.0129864 0.0779081 0.0498151 0 255 0
0.0123858 0.0778366 0.0493201 0 255 0
0.0119832 0.0777375 0.0488307 0 255 0
0.0116197 0.0776329 0.0483425 0 255 0
0.0112696 0.0775266 0.0478546 0 255 0
0.0108536 0.0774209 0.0473542 0 255 0
0.0104467 0.0773108 0.04685 0 255 0
0.00991392 0.0772161 0.0463395 0 255 0
0.00903414 0.0771638 0.0458115 0 255 0
0.00859145 0.0770582 0.0453056 0 255 0
0.00830946 0.0769327 0.0448076 0 255 0
-0.0135676 0.0759312 0.0325825 0 255 0
-0.0140025 0.0758246 0.0320769 0 255 0
-0.0142028 0.0756892 0.0315831 0 255 0
-0.0431294 0.0743669 0.015066 0 255 0
-0.0429069 0.0741797 0.0145922 0 255 0
-0.0426698 0.0739908 0.0141195 0 255 0
-0.0424564 0.0738047 0.013645 0 255 0
-0.042294 0.0736247 0.0131668 0 255 0
-0.0421074 0.0734418 0.0126903 0 255 0
-0.0418419 0.0732495 0.0122198 0 255 0
-0.0416135 0.0730616 0.0117464 0 255 0
-0.0413593 0.0728706 0.0112749 0 255 0
-0.0411856 0.0726893 0.0107975 0 255 0
-0.0411064 0.0725192 0.0103132 0 255 0
-0.0410157 0.0723477 0.00982961 0 255 0
-0.040879 0.0721709 0.0093495 0 255 0
-0.0407027 0.0719892 0.00887229 0 255 0
-0.0405339 0.0718084 0.00839449 0 255 0
-0.0403781 0.0716292 0.00791581 0 255 0
-0.0402745 0.0714562 0.00743329 0 255 0
-0.0402391 0.0712913 0.0069456 0 255 0
-0.0402352 0.0711303 0.00645565 0 255 0
-0.0401804 0.0709632 0.00596943 0 255 0
-0.04008 0.0707906 0.00548669 0 255 0
-0.0399629 0.070616 0.00500515 0 255 0
-0.0398639 0.0704435 0.00452222 0 255 0
-0.0397986 0.0702751 0.00403682 0 255 0
-0.0397805 0.0701124 0.00354786 0 255 0
-0.0398104 0.0699553 0.00305545 0 255 0
-0.039834 0.0697976 0.00256345 0 255 0
-0.0398483 0.0696387 0.00207215 0 255 0
-0.0398648 0.0694801 0.0015807 0 255 0
-0.0398892 0.0693224 0.00108874 0 255 0
-0.0399182 0.0691653 0.000596338 0 255 0
-0.0399925 0.0690135 0.000100616 0 255 0
-0.0401352 0.0688701 -0.000400153 0 255 0
-0.0403292 0.0687326 -0.000904733 0 255 0
-0.040561 0.0685997 -0.00141209 0 255 0
-0.0408104 0.068469 -0.00192076 0 255 0
-0.0410015 0.0683312 -0.00242507 0 255 0
-0.0411845 0.0681925 -0.00292885 0 255 0
-0.0413724 0.0680543 -0.00343299 0 255 0
-0.0415193 0.0679113 -0.00393408 0 255 0
-0.0415459 0.0677539 -0.00442628 0 255 0
-0.0413115 0.0675653 -0.0048992 0 255 0
-0.0408239 0.0673465 -0.00535336 0 255 0
-0.0401315 0.067103 -0.00579242 0 255 0
-0.0395587 0.066874 -0.00624031 0 255 0
-0.0390719 0.0666552 -0.00669461 0 255 0
-0.0387259 0.0664533 -0.00715928 0 255 0
-0.0384655 0.0662615 -0.00763028 0 255 0
-0.0382683 0.0660774 -0.00810592 0 255 0
-0.0380845 0.0658949 -0.00858252 0 255 0
-0.0379345 0.0657163 -0.00906172 0 255 0
-0.0378231 0.0655424 -0.00954375 0 255 0
-0.0377305 0.0653707 -0.0100271 0 255 0
-0.0376516 0.0652007 -0.0105115 0 255 0
-0.0375529 0.0650283 -0.0109944 0 255 0
-0.0375005 0.0648615 -0.0114808 0 255 0
-0.0374865 0.0646992 -0.01197 0 255 0
-0.0375221 0.0645429 -0.0124628 0 255 0
-0.0375714 0.0643881 -0.0129567 0 255 0
-0.037686 0.0642412 -0.0134554 0 255 0
-0.0378706 0.0641027 -0.0139593 0 255 0
-0.038104 0.06397 -0.0144668 0 255 0
-0.0383274 0.0638362 -0.0149735 0 255 0
-0.0565254 0.0628899 -0.0258346 0 255 0
-0.0569436 0.0627739 -0.026371 0 255 0
-0.0571783 0.0626375 -0.0268898 0 255 0
-0.0573496 0.062494 -0.0274025 0 255 0
-0.0575025 0.0623484 -0.0279134 0 255 0
-0.0576452 0.0622017 -0.0284233 0 255 0
-0.0578043 0.0620568 -0.0289348 0 255 0
-0.0580202 0.0619183 -0.0294518 0 255 0
-0.0584528 0.061804 -0.0299895 0 255 0
-0.0588565 0.0616865 -0.0305245 0 255 0
-0.0591495 0.0615565 -0.0310488 0 255 0
-0.0594046 0.0614224 -0.0315696 0 255 0
-0.0596703 0.0612894 -0.0320913 0 255 0
-0.0600954 0.0611743 -0.0326283 0 255 0
-0.0642478 0.0606628 -0.036004 0 255 0
-0.0646302 0.0605428 -0.036537 0 255 0
-0.065138 0.060437 -0.0370818 0 255 0
-0.00501317 0.0978446 0.100714 0 255 0
-0.00399877 0.0975477 0.100266 0 255 0
0.0111881 0.0952682 0.100225 0 255 0
0.0114365 0.0950785 0.0997539 0 255 0
0.0155392 0.0943495 0.0993941 0 255 0
0.0162825 0.0940905 0.0989376 0 255 0
0.0186582 0.0936032 0.098528 0 255 0
0.0193856 0.0933465 0.0980711 0 255 0
0.0199832 0.0931078 0.0976104 0 255 0
0.0205708 0.0928706 0.0971494 0 255 0
0.021284 0.0926158 0.0966921 0 255 0
0.0218497 0.0923817 0.0962305 0 255 0
0.0223908 0.092151 0.0957681 0 255 0
0.0228537 0.0919312 0.0953036 0 255 0
0.0233783 0.0917028 0.0948408 0 255 0
0.0238696 0.0914791 0.0943771 0 255 0
0.0243423 0.0912579 0.0939128 0 255 0
0.0247033 0.0910524 0.0934454 0 255 0
0.0250815 0.0908445 0.0929783 0 255 0
0.0254679 0.0906354 0.0925116 0 255 0
0.0257739 0.0904376 0.0920426 0 255 0
0.0261032 0.0902366 0.0915741 0 255 0
0.0263644 0.090045 0.0911038 0 255 0
0.0266114 0.0898554 0.0906331 0 255 0
0.0268891 0.0896615 0.0901632 0 255 0
0.0271361 0.089472 0.0896924 0 255 0
0.0273266 0.0892903 0.08922 0 255 0
0.0275483 0.0891043 0.0887485 0 255 0
0.0277416 0.0889222 0.0882762 0 255 0
0.0279205 0.0887422 0.0878035 0 255 0
0.0280651 0.088567 0.0873298 0 255 0
0.0282181 0.0883906 0.0868563 0 255 0
0.0283734 0.0882138 0.0863829 0 255 0
0.0285372 0.0880359 0.0859098 0 255 0
0.0286539 0.0878645 0.0854353 0 255 0
0.0287571 0.087695 0.0849603 0 255 0
0.0288657 0.0875249 0.0844856 0 255 0
0.0289493 0.0873581 0.0840102 0 255 0
0.0290065 0.0871951 0.0835339 0 255 0
0.0290857 0.087029 0.0830583 0 255 0
0.0291397 0.0868664 0.0825821 0 255 0
0.0291915 0.0867042 0.0821056 0 255 0
0.0292188 0.0865453 0.0816286 0 255 0
0.0292154 0.0863908 0.0811506 0 255 0
0.0291995 0.086238 0.0806723 0 255 0
0.0291416 0.0860911 0.0801927 0 255 0
0.0290268 0.0859521 0.0797115 0 255 0
0.028866 0.0858197 0.0792291 0 255 0
0.0286862 0.0856898 0.078746 0 255 0
0.0284916 0.0855619 0.0782626 0 255 0
0.0283541 0.0854262 0.0777807 0 255 0
0.028257 0.0852847 0.0773001 0 255 0
0.0281717 0.0851417 0.0768198 0 255 0
0.0280328 0.0850061 0.0763379 0 255 0
0.0278617 0.084875 0.0758551 0 255 0
0.0276697 0.0847468 0.0753717 0 255 0
0.0274289 0.0846255 0.0748869 0 255 0
0.0272041 0.0845019 0.0744026 0 255 0
0.0269125 0.0843877 0.0739164 0 255 0
0.0266595 0.084268 0.0734312 0 255 0
0.0264331 0.0841448 0.0729468 0 255 0
0.026253 0.0840149 0.0724637 0 255 0
0.0260706 0.0838854 0.0719807 0 255 0
0.0258064 0.0837673 0.0714952 0 255 0
0.0255431 0.0836492 0.0710097 0 255 0
0.0252381 0.0835368 0.0705231 0 255 0
0.0249227 0.0834259 0.0700362 0 255 0
0.0245809 0.0833187 0.0695485 0 255 0
0.0242256 0.0832134 0.0690603 0 255 0
0.0238601 0.0831095 0.068572 0 255 0
0.0234258 0.0830152 0.0680816 0 255 0
0.0229927 0.0829208 0.0675913 0 255 0
0.0226563 0.0828128 0.0671038 0 255 0
0.0224082 0.0826926 0.0666187 0 255 0
0.0221247 0.0825772 0.0661328 0 255 0
0.0218697 0.0824579 0.0656475 0 255 0
0.0216695 0.0823309 0.0651639 0 255 0
0.0215407 0.0821938 0.0646823 0 255 0
0.0214624 0.0820498 0.0642022 0 255 0
0.0213526 0.0819101 0.0637212 0 255 0
0.0212008 0.0817763 0.063239 0 255 0
0.0210232 0.0816462 0.0627559 0 255 0
0.020871 0.0815124 0.0622737 0 255 0
0.0207048 0.0813807 0.0617911 0 255 0
0.0205172 0.0812519 0.0613078 0 255 0
0.0203213 0.0811243 0.0608243 0 255 0
0.0201067 0.0809992 0.0603403 0 255 0
0.0198837 0.0808755 0.059856 0 255 0
0.019664 0.0807511 0.0593718 0 255 0
0.0193877 0.0806348 0.058886 0 255 0
0.0191681 0.0805105 0.0584018 0 255 0
0.0188619 0.0803983 0.0579151 0 255 0
0.0185494 0.080287 0.0574283 0 255 0
0.0182658 0.0801716 0.0569422 0 255 0
0.0180542 0.0800463 0.0564582 0 255 0
0.0178254 0.0799233 0.0559738 0 255 0
0.0176244 0.0797963 0.0554902 0 255 0
0.0173766 0.079676 0.0550052 0 255 0
0.0170607 0.0795652 0.0545183 0 255 0
0.0167075 0.0794596 0.0540302 0 255 0
0.0163105 0.07936 0.0535409 0 255 0
0.0159193 0.0792597 0.0530518 0 255 0
0.0155418 0.0791576 0.0525631 0 255 0
0.0151606 0.0790559 0.0520742 0 255 0
0.0147757 0.0789547 0.0515853 0 255 0
0.0143801 0.078855 0.0510961 0 255 0
0.0139657 0.0787579 0.0506063 0 255 0
0.0135164 0.0786658 0.0501155 0 255 0
0.0130336 0.0785783 0.0496237 0 255 0
0.0124814 0.0785005 0.04913 0 255 0
0.0120493 0.078406 0.0486397 0 255 0
0.0116235 0.0783106 0.0481495 0 255 0
0.0112499 0.0782078 0.0476609 0 255 0
0.0108297 0.0781001 0.0471567 0 255 0
0.0104382 0.0779883 0.0466532 0 255 0
0.00885134 0.0778633 0.0456058 0 255 0
0.00846018 0.0777514 0.0451023 0 255 0
-0.0138149 0.0766466 0.0323699 0 255 0
-0.0141668 0.07653 0.0318684 0 255 0
-0.0435028 0.0752779 0.0153191 0 255 0
-0.0433594 0.0751002 0.0148394 0 255 0
-0.0431108 0.07491 0.0143675 0 255 0
-0.0428664 0.0747202 0.0138955 0 255 0
-0.0426424 0.0745328 0.0134217 0 255 0
-0.0424499 0.0743493 0.0129457 0 255 0
-0.0422257 0.074162 0.0124721 0 255 0
-0.0419896 0.0739732 0.0119992 0 255 0
-0.0417409 0.0737828 0.0115274 0 255 0
-0.0414988 0.0735933 0.011055 0 255 0
-0.0413293 0.0734125 0.0105773 0 255 0
-0.0412408 0.0732415 0.0100936 0 255 0
-0.0411326 0.0730681 0.00961126 0 255 0
-0.0409543 0.0728863 0.00913427 0 255 0
-0.0407754 0.0727043 0.00865721 0 255 0
-0.0405828 0.0725208 0.00818114 0 255 0
-0.0404226 0.0723412 0.00770273 0 255 0
-0.0403008 0.0721661 0.00722152 0 255 0
-0.0402662 0.0720016 0.00673383 0 255 0
-0.0402318 0.071837 0.00624606 0 255 0
-0.0401459 0.0716663 0.00576218 0 255 0
-0.0400198 0.0714908 0.00528118 0 255 0
-0.0399169 0.071318 0.00479852 0 255 0
-0.0398236 0.0711463 0.00431518 0 255 0
-0.039761 0.0709784 0.00382952 0 255 0
-0.039731 0.0708144 0.00334149 0 255 0
-0.0397337 0.0706544 0.00285103 0 255 0
-0.0397507 0.070496 0.0023595 0 255 0
-0.0397445 0.0703349 0.0018696 0 255 0
-0.0397495 0.0701751 0.00137896 0 255 0
-0.0397786 0.0700181 0.000886585 0 255 0
-0.0397868 0.0698587 0.000395649 0 255 0
-0.0398288 0.0697034 -9.77158e-05 0 255 0
-0.0399569 0.0695584 -0.000597456 0 255 0
-0.0401062 0.069416 -0.00109889 0 255 0
-0.0402931 0.0692781 -0.00160292 0 255 0
-0.0405351 0.0691467 -0.00211118 0 255 0
-0.0407725 0.0690149 -0.002619 0 255 0
-0.0409533 0.0688763 -0.00312267 0 255 0
-0.0411027 0.0687338 -0.00362408 0 255 0
-0.0412286 0.0685885 -0.0041236 0 255 0
-0.0413221 0.0684394 -0.00462085 0 255 0
-0.0413055 0.068277 -0.00510986 0 255 0
-0.0410515 0.0680861 -0.00558137 0 255 0
-0.0404643 0.0678551 -0.0060281 0 255 0
-0.0397487 0.0676086 -0.00646546 0 255 0
-0.0392454 0.0673877 -0.00691846 0 255 0
-0.0388944 0.0671851 -0.00738277 0 255 0
-0.0385827 0.0669873 -0.0078499 0 255 0
-0.0383758 0.0668019 -0.00832485 0 255 0
-0.0381948 0.0666198 -0.00880177 0 255 0
-0.0380128 0.0664375 -0.00927854 0 255 0
-0.0378607 0.0662588 -0.00975756 0 255 0
-0.0377422 0.0660842 -0.0102391 0 255 0
-0.0376635 0.0659143 -0.0107235 0 255 0
-0.0375983 0.0657461 -0.011209 0 255 0
-0.0375564 0.0655806 -0.0116961 0 255 0
-0.0375045 0.065414 -0.0121826 0 255 0
-0.0374717 0.0652497 -0.0126704 0 255 0
-0.037462 0.0650881 -0.01316 0 255 0
-0.0374881 0.0649308 -0.0136522 0 255 0
-0.0375761 0.0647811 -0.014149 0 255 0
-0.0377467 0.0646412 -0.0146519 0 255 0
-0.0380108 0.0645125 -0.0151618 0 255 0
-0.0382481 0.0643806 -0.0156696 0 255 0
-0.0571277 0.0635246 -0.0266083 0 255 0
-0.0573011 0.0633816 -0.0271212 0 255 0
-0.0574518 0.063236 -0.027632 0 255 0
-0.0575798 0.0630879 -0.0281407 0 255 0
-0.0577515 0.0629448 -0.0286535 0 255 0
-0.0578892 0.0627977 -0.029163 0 255 0
-0.0580808 0.0626568 -0.0296778 0 255 0
-0.0584879 0.0625401 -0.0302132 0 255 0
-0.0589894 0.062434 -0.0307577 0 255 0
-0.0592582 0.0623018 -0.0312798 0 255 0
-0.0595305 0.0621699 -0.0318024 0 255 0
-0.0598867 0.0620475 -0.0323329 0 255 0
-0.0602499 0.0619259 -0.0328641 0 255 0
-0.0646904 0.0612879 -0.0367649 0 255 0
-0.0652231 0.0611854 -0.0373124 0 255 0
-0.00470821 0.0984719 0.100532 0 255 0
-0.00351237 0.0981491 0.100089 0 255 0
-0.00323749 0.0979556 0.0996188 0 255 0
0.0148538 0.0952594 0.0996639 0 255 0
0.015639 0.0949942 0.0992087 0 255 0
0.0163839 0.0947348 0.0987523 0 255 0
0.0186041 0.094268 0.0983387 0 255 0
0.0193275 0.0940115 0.0978816 0 255 0
0.0199354 0.0937713 0.0974213 0 255 0
0.0205065 0.0935362 0.0969598 0 255 0
0.0211459 0.0932916 0.0965004 0 255 0
0.0217061 0.093058 0.0960387 0 255 0
0.0223169 0.0928173 0.0955785 0 255 0
0.02283 0.0925904 0.0951154 0 255 0
0.0233247 0.092366 0.0946519 0 255 0
0.0238203 0.0921416 0.0941883 0 255 0
0.024314 0.0919174 0.0937246 0 255 0
0.024705 0.0917075 0.093258 0 255 0
0.0250818 0.0914998 0.092791 0 255 0
0.0254453 0.0912939 0.0923236 0 255 0
0.0257177 0.0911008 0.0918536 0 255 0
0.0260516 0.090899 0.0913854 0 255 0
0.026347 0.0907027 0.0909159 0 255 0
0.0265763 0.0905155 0.0904447 0 255 0
0.0268515 0.090322 0.0899747 0 255 0
0.0270881 0.090134 0.0895037 0 255 0
0.0272858 0.0899513 0.0890314 0 255 0
0.0274992 0.0897665 0.0885597 0 255 0
0.0276808 0.0895862 0.088087 0 255 0
0.0278544 0.0894069 0.0876142 0 255 0
0.0279897 0.089233 0.0871402 0 255 0
0.0281458 0.0890563 0.0866668 0 255 0
0.0283019 0.0888795 0.0861934 0 255 0
0.0284645 0.0887017 0.0857202 0 255 0
0.0285819 0.0885304 0.0852456 0 255 0
0.0287063 0.0883581 0.0847714 0 255 0
0.0288023 0.0881897 0.0842963 0 255 0
0.0288753 0.0880247 0.0838204 0 255 0
0.0289377 0.0878611 0.0833443 0 255 0
0.0290298 0.0876932 0.0828691 0 255 0
0.0291024 0.0875281 0.0823932 0 255 0
0.0291597 0.0873652 0.081917 0 255 0
0.0292208 0.0872018 0.0814409 0 255 0
0.029242 0.087044 0.0809635 0 255 0
0.0292607 0.0868865 0.0804862 0 255 0
0.0292425 0.0867342 0.0800078 0 255 0
0.0291549 0.0865916 0.0795273 0 255 0
0.0290146 0.0864565 0.0790454 0 255 0
0.028842 0.086326 0.0785625 0 255 0
0.0286341 0.0862003 0.0780785 0 255 0
0.0284968 0.0860647 0.0775967 0 255 0
0.0284201 0.0859206 0.0771165 0 255 0
0.0283626 0.0857738 0.076637 0 255 0
0.0282454 0.0856354 0.0761556 0 255 0
0.0280738 0.0855047 0.0756728 0 255 0
0.0278962 0.0853748 0.0751898 0 255 0
0.0276604 0.0852531 0.074705 0 255 0
0.0274119 0.0851331 0.07422 0 255 0
0.0271197 0.0850193 0.0737336 0 255 0
0.0268545 0.0849017 0.073248 0 255 0
0.0266102 0.0847812 0.072763 0 255 0
0.0263952 0.0846565 0.072279 0 255 0
0.0261936 0.0845299 0.0717952 0 255 0
0.0259247 0.0844128 0.0713095 0 255 0
0.0256299 0.0842994 0.0708231 0 255 0
0.025279 0.0841939 0.070335 0 255 0
0.0249006 0.0840922 0.0698462 0 255 0
0.0245305 0.0839893 0.0693576 0 255 0
0.0241611 0.0838863 0.068869 0 255 0
0.0237329 0.0837917 0.0683787 0 255 0
0.0233403 0.083692 0.0678894 0 255 0
0.0230143 0.0835829 0.0674021 0 255 0
0.0227403 0.0834665 0.0669163 0 255 0
0.0225278 0.0833415 0.0664323 0 255 0
0.0222809 0.0832214 0.0659472 0 255 0
0.0220544 0.0830983 0.0654627 0 255 0
0.0218557 0.0829714 0.0649791 0 255 0
0.0217006 0.0828383 0.0644967 0 255 0
0.021617 0.0826952 0.0640163 0 255 0
0.0215254 0.0825532 0.0635358 0 255 0
0.0213994 0.0824161 0.0630543 0 255 0
0.0212574 0.0822811 0.0625722 0 255 0
0.0210902 0.0821497 0.0620895 0 255 0
0.0209406 0.0820159 0.0616073 0 255 0
0.0207659 0.0818856 0.0611243 0 255 0
0.0205396 0.0817626 0.0606398 0 255 0
0.0203093 0.0816401 0.0601553 0 255 0
0.0200466 0.0815221 0.0596698 0 255 0
0.0198162 0.0813996 0.0591852 0 255 0
0.0195421 0.0812833 0.0586994 0 255 0
