-0.0299416 0.171269 -0.00242467 0 255 0
-0.0295863 0.171251 -0.00279813 0 255 0
-0.0292985 0.171232 -0.00327898 0 255 0
-0.0289431 0.171213 -0.00365244 0 255 0
-0.0286553 0.171194 -0.0041333 0 255 0
-0.0282999 0.171176 -0.00450675 0 255 0
-0.0280121 0.171158 -0.00498763 0 255 0
-0.0277243 0.171139 -0.00546849 0 255 0
-0.0273688 0.17112 -0.00584185 0 255 0
-0.0270135 0.171102 -0.00621539 0 255 0
-0.0267932 0.171082 -0.00680357 0 255 0
-0.0264378 0.171064 -0.00717703 0 255 0
-0.0260825 0.171045 -0.00755048 0 255 0
-0.0257947 0.171026 -0.00803134 0 255 0
-0.0254393 0.171008 -0.00840479 0 255 0
-0.0251514 0.17099 -0.00888567 0 255 0
-0.0247285 0.170972 -0.00915172 0 255 0
-0.0243731 0.170954 -0.00952517 0 255 0
-0.0239501 0.170936 -0.00979122 0 255 0
-0.0235947 0.170918 -0.0101647 0 255 0
-0.0232393 0.170899 -0.010538 0 255 0
-0.0228163 0.170882 -0.0108041 0 255 0
-0.0223933 0.170864 -0.0110701 0 255 0
-0.0219704 0.170846 -0.0113362 0 255 0
-0.021615 0.170828 -0.0117097 0 255 0
-0.021192 0.17081 -0.0119758 0 255 0
-0.0207691 0.170793 -0.0122418 0 255 0
-0.0203461 0.170775 -0.0125079 0 255 0
-0.0199231 0.170758 -0.0127739 0 255 0
-0.0195001 0.17074 -0.01304 0 255 0
-0.0190772 0.170722 -0.013306 0 255 0
-0.0186542 0.170705 -0.0135721 0 255 0
-0.0182312 0.170687 -0.0138381 0 255 0
-0.0177406 0.17067 -0.0139967 0 255 0
-0.0173176 0.170653 -0.0142627 0 255 0
-0.0168947 0.170635 -0.0145288 0 255 0
-0.0164717 0.170617 -0.0147948 0 255 0
-0.0159812 0.170601 -0.0149536 0 255 0
-0.0155582 0.170583 -0.0152196 0 255 0
-0.0150676 0.170566 -0.0153782 0 255 0
-0.0146447 0.170549 -0.0156443 0 255 0
-0.0142217 0.170531 -0.0159103 0 255 0
-0.0137987 0.170513 -0.0161764 0 255 0
-0.0133757 0.170496 -0.0164424 0 255 0
-0.0128852 0.170479 -0.0166011 0 255 0
-0.0124622 0.170461 -0.0168671 0 255 0
-0.0120392 0.170444 -0.0171332 0 255 0
-0.0116162 0.170426 -0.0173992 0 255 0
-0.0111257 0.170409 -0.0175579 0 255 0
-0.0107027 0.170392 -0.0178239 0 255 0
-0.0102797 0.170374 -0.01809 0 255 0
-0.00985676 0.170356 -0.018356 0 255 0
-0.00936623 0.170338 -0.0185147 0 255 0
-0.00894325 0.170321 -0.0187807 0 255 0
-0.00852028 0.170303 -0.0190468 0 255 0
-0.0080973 0.170286 -0.0193128 0 255 0
-0.00767433 0.170268 -0.0195788 0 255 0
-0.00725135 0.17025 -0.0198449 0 255 0
-0.00689593 0.170233 -0.0202184 0 255 0
-0.00654055 0.170215 -0.0205918 0 255 0
-0.00611757 0.170197 -0.0208579 0 255 0
-0.00576219 0.170179 -0.0212313 0 255 0
-0.00547434 0.17016 -0.0217121 0 255 0
-0.005119 0.170141 -0.0220856 0 255 0
-0.00489874 0.170121 -0.0226738 0 255 0
-0.00461094 0.170102 -0.0231547 0 255 0
-0.00445829 0.170083 -0.0238504 0 255 0
-0.00423808 0.170063 -0.0244386 0 255 0
-0.00401787 0.170043 -0.0250269 0 255 0
-0.00393279 0.170021 -0.0258299 0 255 0
-0.0035774 0.170003 -0.0262033 0 255 0
-0.00335716 0.169984 -0.0267916 0 255 0
-0.0654307 0.172323 -0.0396529 0 255 0
-0.0651516 0.172305 -0.0401477 0 255 0
-0.0644494 0.172271 -0.0409084 0 255 0
-0.0635316 0.172235 -0.0413262 0 255 0
-0.0634681 0.172218 -0.0421639 0 255 0
-0.0632609 0.172201 -0.0427729 0 255 0
-0.0631255 0.172183 -0.0434962 0 255 0
-0.0365409 0.172194 -0.00217138 0 255 0
-0.0356449 0.17218 -0.00168566 0 255 0
-0.0348164 0.172166 -0.00130726 0 255 0
-0.0341232 0.172151 -0.00114376 0 255 0
-0.0334975 0.172135 -0.00108759 0 255 0
-0.0328042 0.17212 -0.000924006 0 255 0
-0.0323136 0.172103 -0.00108265 0 255 0
-0.0317555 0.172087 -0.00113397 0 255 0
-0.0312649 0.17207 -0.00129253 0 255 0
-0.0308419 0.172052 -0.00155858 0 255 0
-0.0304189 0.172035 -0.00182463 0 255 0
-0.0299959 0.172017 -0.00209068 0 255 0
-0.0296406 0.171999 -0.00246422 0 255 0
-0.0292852 0.17198 -0.00283759 0 255 0
-0.0289974 0.171961 -0.00331845 0 255 0
-0.028642 0.171944 -0.00369192 0 255 0
-0.0282866 0.171926 -0.00406537 0 255 0
-0.0279988 0.171906 -0.00454623 0 255 0
-0.0276434 0.171888 -0.00491968 0 255 0
-0.0273556 0.171869 -0.00540054 0 255 0
-0.0270677 0.171851 -0.00588133 0 255 0
-0.0267123 0.171832 -0.00625479 0 255 0
-0.0264245 0.171813 -0.00673565 0 255 0
-0.0260691 0.171795 -0.0071091 0 255 0
-0.0257813 0.171777 -0.00758998 0 255 0
-0.0254259 0.171758 -0.00796343 0 255 0
-0.0251381 0.171739 -0.00844429 0 255 0
-0.0248503 0.17172 -0.00892506 0 255 0
-0.0244949 0.171703 -0.00929853 0 255 0
-0.0241395 0.171684 -0.00967199 0 255 0
-0.0237165 0.171667 -0.00993804 0 255 0
-0.0233611 0.171648 -0.0103115 0 255 0
-0.0229381 0.171631 -0.0105775 0 255 0
-0.0225828 0.171612 -0.010951 0 255 0
-0.0221598 0.171595 -0.011217 0 255 0
-0.0218044 0.171576 -0.0115905 0 255 0
-0.0213814 0.171559 -0.0118565 0 255 0
-0.0209584 0.171541 -0.0121226 0 255 0
-0.0205355 0.171524 -0.0123886 0 255 0
-0.0201801 0.171505 -0.0127621 0 255 0
-0.0196895 0.171488 -0.0129207 0 255 0
-0.0193341 0.17147 -0.0132942 0 255 0
-0.0189112 0.171452 -0.0135602 0 255 0
-0.0184206 0.171436 -0.0137189 0 255 0
-0.0180652 0.171417 -0.0140923 0 255 0
-0.0176422 0.1714 -0.0143584 0 255 0
-0.0171517 0.171383 -0.014517 0 255 0
-0.0167287 0.171365 -0.0147831 0 255 0
-0.0163057 0.171347 -0.0150491 0 255 0
-0.0158827 0.17133 -0.0153152 0 255 0
-0.0154598 0.171312 -0.0155812 0 255 0
-0.0149692 0.171295 -0.0157399 0 255 0
-0.0145462 0.171278 -0.0160059 0 255 0
-0.0141233 0.17126 -0.016272 0 255 0
-0.0137003 0.171243 -0.016538 0 255 0
-0.0132097 0.171226 -0.0166967 0 255 0
-0.0127867 0.171208 -0.0169627 0 255 0
-0.0123638 0.17119 -0.0172288 0 255 0
-0.0119408 0.171173 -0.0174948 0 255 0
-0.0115178 0.171155 -0.0177609 0 255 0
-0.0110273 0.171138 -0.0179195 0 255 0
-0.0106043 0.171121 -0.0181856 0 255 0
-0.0101813 0.171103 -0.0184516 0 255 0
-0.00975833 0.171086 -0.0187177 0 255 0
-0.00933535 0.171068 -0.0189837 0 255 0
-0.00891238 0.17105 -0.0192497 0 255 0
-0.00848941 0.171033 -0.0195158 0 255 0
-0.00806643 0.171015 -0.0197818 0 255 0
-0.00764346 0.170998 -0.0200479 0 255 0
-0.00728807 0.170979 -0.0204214 0 255 0
-0.00686509 0.170962 -0.0206874 0 255 0
-0.00650971 0.170943 -0.0210609 0 255 0
-0.00615432 0.170925 -0.0214343 0 255 0
-0.00579894 0.170906 -0.0218078 0 255 0
-0.00544352 0.170889 -0.0221812 0 255 0
-0.00515572 0.17087 -0.0226621 0 255 0
-0.00486787 0.170851 -0.0231429 0 255 0
-0.00464763 0.170832 -0.0237311 0 255 0
-0.00435983 0.170813 -0.024212 0 255 0
-0.00420721 0.170792 -0.0249077 0 255 0
-0.00398697 0.170773 -0.025496 0 255 0
-0.00383427 0.170754 -0.0261916 0 255 0
-0.00361406 0.170734 -0.0267798 0 255 0
-0.00319109 0.170716 -0.0270459 0 255 0
-0.0681748 0.173172 -0.0398433 0 255 0
-0.0671935 0.173119 -0.0410988 0 255 0
-0.0660515 0.1731 -0.0402215 0 255 0
-0.065988 0.173084 -0.0410592 0 255 0
-0.0654212 0.173066 -0.0410966 0 255 0
-0.0651421 0.173049 -0.0415913 0 255 0
-0.0646472 0.173031 -0.041743 0 255 0
-0.064368 0.173014 -0.0422377 0 255 0
-0.0638732 0.172996 -0.0423895 0 255 0
-0.0638097 0.172979 -0.0432272 0 255 0
-0.0636025 0.172962 -0.0438362 0 255 0
-0.0631076 0.172944 -0.0439879 0 255 0
-0.0630442 0.172927 -0.0448257 0 255 0
-0.0364926 0.172902 -0.00355092 0 255 0
-0.0354614 0.172889 -0.00285038 0 255 0
-0.0343627 0.172877 -0.00204243 0 255 0
-0.0336694 0.172862 -0.00187884 0 255 0
-0.032841 0.172847 -0.00150053 0 255 0
-0.0322828 0.17283 -0.00155175 0 255 0
-0.0317247 0.172814 -0.00160299 0 255 0
-0.0311666 0.172797 -0.00165421 0 255 0
-0.0306761 0.17278 -0.00181294 0 255 0
-0.0302531 0.172763 -0.00207899 0 255 0
-0.0297625 0.172746 -0.00223763 0 255 0
-0.0294071 0.172727 -0.00261109 0 255 0
-0.0290517 0.172709 -0.00298445 0 255 0
-0.0286287 0.172692 -0.0032505 0 255 0
-0.0283409 0.172673 -0.00373138 0 255 0
-0.0279855 0.172655 -0.00410483 0 255 0
-0.0276977 0.172637 -0.00458571 0 255 0
-0.0273423 0.172618 -0.00495916 0 255 0
-0.0270544 0.172599 -0.00543994 0 255 0
-0.026699 0.172581 -0.00581339 0 255 0
-0.0263436 0.172564 -0.00618686 0 255 0
-0.0260558 0.172544 -0.00666772 0 255 0
-0.0257004 0.172526 -0.00704117 0 255 0
-0.0254126 0.172508 -0.00752205 0 255 0
-0.0251248 0.172489 -0.00800291 0 255 0
-0.0247694 0.17247 -0.00837636 0 255 0
-0.0244816 0.172452 -0.00885715 0 255 0
-0.0241262 0.172434 -0.00923061 0 255 0
-0.0238383 0.172416 -0.00971148 0 255 0
-0.0234829 0.172397 -0.0100849 0 255 0
-0.02306 0.17238 -0.010351 0 255 0
-0.0227046 0.172362 -0.0107244 0 255 0
-0.0223492 0.172343 -0.0110979 0 255 0
-0.0219262 0.172326 -0.0113639 0 255 0
-0.0215708 0.172308 -0.0117374 0 255 0
-0.0211478 0.172291 -0.0120035 0 255 0
-0.0207249 0.172273 -0.0122695 0 255 0
-0.0203694 0.172255 -0.0126429 0 255 0
-0.0199464 0.172237 -0.0129089 0 255 0
-0.0195235 0.172219 -0.013175 0 255 0
-0.0191681 0.172201 -0.0135484 0 255 0
-0.0186775 0.172184 -0.0137071 0 255 0
-0.0182545 0.172167 -0.0139731 0 255 0
-0.0178992 0.172148 -0.0143466 0 255 0
-0.0174762 0.172131 -0.0146126 0 255 0
-0.0169856 0.172114 -0.0147713 0 255 0
-0.0165626 0.172096 -0.0150373 0 255 0
-0.0162073 0.172078 -0.0154108 0 255 0
-0.0157167 0.172061 -0.0155694 0 255 0
-0.0152937 0.172043 -0.0158355 0 255 0
-0.0148707 0.172026 -0.0161015 0 255 0
-0.0144478 0.172008 -0.0163676 0 255 0
-0.0139573 0.171991 -0.0165263 0 255 0
-0.0135343 0.171974 -0.0167923 0 255 0
-0.0131113 0.171956 -0.0170584 0 255 0
-0.0126883 0.171938 -0.0173244 0 255 0
-0.0122654 0.171921 -0.0175905 0 255 0
-0.0118424 0.171903 -0.0178565 0 255 0
-0.0114194 0.171885 -0.0181226 0 255 0
-0.0109289 0.171868 -0.0182812 0 255 0
-0.0105059 0.17185 -0.0185473 0 255 0
-0.0100829 0.171832 -0.0188133 0 255 0
-0.00965995 0.171815 -0.0190794 0 255 0
-0.00923698 0.171797 -0.0193454 0 255 0
-0.00881401 0.17178 -0.0196115 0 255 0
-0.00839103 0.171762 -0.0198775 0 255 0
-0.00803561 0.171745 -0.020251 0 255 0
-0.00761264 0.171727 -0.020517 0 255 0
-0.0072572 0.171709 -0.0208904 0 255 0
-0.00690181 0.17169 -0.0212639 0 255 0
-0.00647884 0.171673 -0.0215299 0 255 0
-0.00612345 0.171654 -0.0219034 0 255 0
-0.00576807 0.171636 -0.0222768 0 255 0
-0.00548024 0.171618 -0.0227577 0 255 0
-0.00519244 0.171599 -0.0232385 0 255 0
-0.00483702 0.171581 -0.023612 0 255 0
-0.00461676 0.171561 -0.0242002 0 255 0
-0.00439652 0.171542 -0.0247885 0 255 0
-0.00417628 0.171524 -0.0253768 0 255 0
-0.00395602 0.171504 -0.0259649 0 255 0
-0.00387096 0.171483 -0.026768 0 255 0
-0.00351554 0.171466 -0.0271415 0 255 0
-0.00309256 0.171448 -0.0274075 0 255 0
-0.0685165 0.173933 -0.0409067 0 255 0
-0.0678777 0.173916 -0.0408297 0 255 0
-0.0673828 0.173898 -0.0409814 0 255 0
-0.0668161 0.17388 -0.0410188 0 255 0
-0.0661055 0.173861 -0.0408275 0 255 0
-0.066042 0.173845 -0.0416652 0 255 0
-0.065619 0.173827 -0.0419312 0 255 0
-0.0654118 0.17381 -0.0425404 0 255 0
-0.0650607 0.173792 -0.0429207 0 255 0
-0.0646378 0.173774 -0.0431867 0 255 0
-0.0642148 0.173757 -0.0434528 0 255 0
-0.0640794 0.17374 -0.0441762 0 255 0
-0.0638003 0.173723 -0.044671 0 255 0
-0.0635211 0.173706 -0.0451657 0 255 0
-0.0631701 0.173688 -0.0455461 0 255 0
-0.0629628 0.173672 -0.0461551 0 255 0
-0.0628994 0.173655 -0.0469929 0 255 0
-0.0350076 0.173601 -0.00358547 0 255 0
-0.0342467 0.173586 -0.00331448 0 255 0
-0.0332832 0.173572 -0.00272132 0 255 0
-0.0323872 0.173557 -0.00223559 0 255 0
-0.0317615 0.173541 -0.00217949 0 255 0
-0.0311358 0.173526 -0.00212332 0 255 0
-0.0305777 0.173509 -0.00217455 0 255 0
-0.0300871 0.173492 -0.00233328 0 255 0
-0.0295966 0.173474 -0.0024919 0 255 0
-0.0291736 0.173456 -0.00275795 0 255 0
-0.0287507 0.173439 -0.003024 0 255 0
-0.0283952 0.173421 -0.00339747 0 255 0
-0.0280398 0.173403 -0.00377084 0 255 0
-0.0276844 0.173384 -0.00414429 0 255 0
-0.027329 0.173367 -0.00451777 0 255 0
-0.0270412 0.173348 -0.00499862 0 255 0
-0.0266858 0.17333 -0.00537208 0 255 0
-0.0263304 0.173312 -0.00574555 0 255 0
-0.0260425 0.173293 -0.00622632 0 255 0
-0.0256871 0.173276 -0.00659979 0 255 0
-0.0253993 0.173257 -0.00708065 0 255 0
-0.0250439 0.173239 -0.00745412 0 255 0
-0.0247561 0.17322 -0.00793498 0 255 0
-0.0244007 0.173202 -0.00830835 0 255 0
-0.0241129 0.173184 -0.00878923 0 255 0
-0.0237575 0.173165 -0.00916268 0 255 0
-0.0235372 0.173146 -0.00975096 0 255 0
-0.0231818 0.173129 -0.0101244 0 255 0
-0.0228264 0.173111 -0.0104978 0 255 0
-0.022471 0.173092 -0.0108713 0 255 0
-0.022048 0.173075 -0.0111373 0 255 0
-0.0216926 0.173056 -0.0115108 0 255 0
-0.0213372 0.173039 -0.0118842 0 255 0
-0.0209142 0.173021 -0.0121503 0 255 0
-0.0204913 0.173004 -0.0124163 0 255 0
-0.0201359 0.172985 -0.0127898 0 255 0
-0.0197129 0.172968 -0.0130558 0 255 0
-0.0192899 0.17295 -0.0133219 0 255 0
-0.0189345 0.172932 -0.0136953 0 255 0
-0.0185116 0.172914 -0.0139614 0 255 0
-0.0180886 0.172896 -0.0142274 0 255 0
-0.0176656 0.172879 -0.0144935 0 255 0
-0.0172426 0.172861 -0.0147595 0 255 0
-0.0168197 0.172844 -0.0150256 0 255 0
-0.0163967 0.172826 -0.0152916 0 255 0
-0.0160413 0.172809 -0.0156651 0 255 0
-0.0155507 0.172791 -0.0158237 0 255 0
-0.0151278 0.172773 -0.0160898 0 255 0
-0.0147048 0.172756 -0.0163558 0 255 0
-0.0142818 0.172738 -0.0166219 0 255 0
-0.0138588 0.17272 -0.0168879 0 255 0
-0.0134359 0.172703 -0.017154 0 255 0
-0.0130129 0.172685 -0.01742 0 255 0
-0.0125899 0.172668 -0.0176861 0 255 0
-0.0121669 0.17265 -0.0179521 0 255 0
-0.0116764 0.172633 -0.0181108 0 255 0
-0.0112534 0.172615 -0.0183768 0 255 0
-0.0108304 0.172598 -0.0186429 0 255 0
-0.0104074 0.17258 -0.0189089 0 255 0
-0.00998447 0.172563 -0.019175 0 255 0
-0.0095615 0.172545 -0.019441 0 255 0
-0.00913852 0.172527 -0.0197071 0 255 0
-0.00878313 0.172509 -0.0200805 0 255 0
-0.00836016 0.172491 -0.0203466 0 255 0
-0.00793718 0.172474 -0.0206126 0 255 0
-0.00758177 0.172456 -0.0209861 0 255 0
-0.00722638 0.172438 -0.0213595 0 255 0
-0.00680341 0.17242 -0.0216256 0 255 0
-0.00644802 0.172402 -0.021999 0 255 0
-0.00616014 0.172384 -0.0224798 0 255 0
-0.00580475 0.172366 -0.0228533 0 255 0
-0.00544934 0.172348 -0.0232267 0 255 0
-0.00509395 0.17233 -0.0236002 0 255 0
-0.00487371 0.172311 -0.0241885 0 255 0
-0.00458586 0.172292 -0.0246693 0 255 0
-0.00443318 0.172273 -0.025365 0 255 0
-0.00421292 0.172253 -0.0259531 0 255 0
-0.00399268 0.172234 -0.0265414 0 255 0
-0.00383999 0.172216 -0.0272371 0 255 0
-0.00334946 0.172198 -0.0273957 0 255 0
-0.0675807 0.174659 -0.0418162 0 255 0
-0.0670858 0.174641 -0.0419679 0 255 0
-0.0670943 0.174625 -0.04292 0 255 0
-0.0665994 0.174607 -0.0430717 0 255 0
-0.0660326 0.174589 -0.0431091 0 255 0
-0.0658254 0.174572 -0.0437181 0 255 0
-0.0655462 0.174556 -0.0442128 0 255 0
-0.0653389 0.174539 -0.044822 0 255 0
-0.064844 0.174521 -0.0449737 0 255 0
-0.0644211 0.174504 -0.0452397 0 255 0
-0.0642138 0.174487 -0.0458488 0 255 0
-0.063719 0.174469 -0.0460005 0 255 0
-0.0634398 0.174452 -0.0464952 0 255 0
-0.0630887 0.174435 -0.0468757 0 255 0
-0.0629534 0.174418 -0.0475991 0 255 0
-0.0627461 0.174402 -0.0482081 0 255 0
-0.0625389 0.174385 -0.0488173 0 255 0
-0.0337929 0.174298 -0.00404966 0 255 0
-0.033032 0.174282 -0.00377865 0 255 0
-0.0320686 0.174268 -0.00318558 0 255 0
-0.0313077 0.174252 -0.00291457 0 255 0
-0.0306145 0.174236 -0.00275107 0 255 0
-0.0299887 0.17422 -0.00269488 0 255 0
-0.0294982 0.174202 -0.00285351 0 255 0
-0.0290077 0.174185 -0.00301224 0 255 0
-0.0285847 0.174168 -0.00327829 0 255 0
-0.0281618 0.17415 -0.00354434 0 255 0
-0.0278063 0.174132 -0.00391771 0 255 0
-0.0273833 0.174114 -0.00418376 0 255 0
-0.0270955 0.174096 -0.00466463 0 255 0
-0.0266725 0.174078 -0.00493068 0 255 0
-0.0263847 0.17406 -0.00541156 0 255 0
-0.0260293 0.174042 -0.00578501 0 255 0
-0.0256739 0.174023 -0.00615838 0 255 0
-0.0253861 0.174005 -0.00663926 0 255 0
-0.0250306 0.173988 -0.00701273 0 255 0
-0.0247428 0.173969 -0.00749358 0 255 0
-0.0243874 0.173951 -0.00786706 0 255 0
-0.0240995 0.173933 -0.00834785 0 255 0
-0.0237442 0.173915 -0.0087213 0 255 0
-0.0234563 0.173897 -0.00920218 0 255 0
-0.0231685 0.173878 -0.00968304 0 255 0
-0.0228131 0.17386 -0.0100565 0 255 0
-0.0225252 0.173842 -0.0105373 0 255 0
-0.0221698 0.173824 -0.0109108 0 255 0
-0.0218145 0.173805 -0.0112842 0 255 0
-0.0213915 0.173788 -0.0115503 0 255 0
-0.0210361 0.17377 -0.0119237 0 255 0
-0.0206807 0.173752 -0.0122972 0 255 0
-0.0202577 0.173734 -0.0125632 0 255 0
-0.0199023 0.173716 -0.0129367 0 255 0
-0.0194793 0.173698 -0.0132027 0 255 0
-0.0190564 0.173681 -0.0134688 0 255 0
-0.0187009 0.173663 -0.0138423 0 255 0
-0.018278 0.173646 -0.0141083 0 255 0
-0.017855 0.173628 -0.0143743 0 255 0
-0.017432 0.173611 -0.0146404 0 255 0
-0.0170766 0.173592 -0.0150138 0 255 0
-0.0166536 0.173575 -0.0152798 0 255 0
-0.0162306 0.173557 -0.0155459 0 255 0
-0.0158077 0.173539 -0.0158119 0 255 0
-0.0153847 0.173522 -0.016078 0 255 0
-0.0149617 0.173504 -0.016344 0 255 0
-0.0145387 0.173487 -0.0166101 0 255 0
-0.0141833 0.173469 -0.0169835 0 255 0
-0.0136928 0.173451 -0.0171422 0 255 0
-0.0133374 0.173434 -0.0175156 0 255 0
-0.0128468 0.173416 -0.0176743 0 255 0
-0.0124239 0.173399 -0.0179403 0 255 0
-0.0120009 0.173381 -0.0182064 0 255 0
-0.0115779 0.173363 -0.0184724 0 255 0
-0.0112225 0.173346 -0.0188459 0 255 0
-0.010732 0.173328 -0.0190045 0 255 0
-0.010309 0.17331 -0.0192706 0 255 0
-0.00988601 0.173293 -0.0195366 0 255 0
-0.00946304 0.173275 -0.0198026 0 255 0
-0.00904006 0.173258 -0.0200687 0 255 0
-0.00868464 0.17324 -0.0204422 0 255 0
-0.00832926 0.173222 -0.0208156 0 255 0
-0.00790628 0.173204 -0.0210817 0 255 0
-0.0075509 0.173186 -0.0214551 0 255 0
-0.00719548 0.173169 -0.0218286 0 255 0
-0.00684009 0.17315 -0.022202 0 255 0
-0.00641712 0.173133 -0.0224681 0 255 0
-0.0060617 0.173115 -0.0228416 0 255 0
-0.00577385 0.173096 -0.0233223 0 255 0
-0.00541843 0.173079 -0.0236958 0 255 0
-0.00513064 0.17306 -0.0241767 0 255 0
-0.00491031 0.173042 -0.0247649 0 255 0
-0.00462252 0.173023 -0.0252457 0 255 0
-0.00440228 0.173004 -0.025834 0 255 0
-0.00418195 0.172986 -0.0264222 0 255 0
-0.00396171 0.172967 -0.0270105 0 255 0
-0.00380901 0.172947 -0.0277061 0 255 0
-0.00325091 0.172931 -0.0277574 0 255 0
-0.0696312 0.175463 -0.0437198 0 255 0
-0.0692801 0.175446 -0.0441002 0 255 0
-0.0688571 0.175428 -0.0443663 0 255 0
-0.068578 0.175411 -0.0448611 0 255 0
-0.0676517 0.175391 -0.0443266 0 255 0
-0.0670129 0.175372 -0.0442496 0 255 0
-0.0665181 0.175354 -0.0444014 0 255 0
-0.0660951 0.175337 -0.0446674 0 255 0
-0.0658878 0.17532 -0.0452765 0 255 0
-0.0656087 0.175303 -0.0457712 0 255 0
-0.0653295 0.175287 -0.046266 0 255 0
-0.0649066 0.175269 -0.0465321 0 255 0
-0.0644117 0.17525 -0.0466837 0 255 0
-0.0639887 0.175233 -0.0469498 0 255 0
-0.0637095 0.175216 -0.0474445 0 255 0
-0.0633585 0.175199 -0.0478249 0 255 0
-0.0631513 0.175182 -0.0484341 0 255 0
-0.0627283 0.175165 -0.0487001 0 255 0
-0.062521 0.175149 -0.0493092 0 255 0
-0.0623138 0.175132 -0.0499183 0 255 0
-0.0621065 0.175116 -0.0505274 0 255 0
-0.0325783 0.174994 -0.00451383 0 255 0
-0.0315472 0.174979 -0.00381325 0 255 0
-0.0308539 0.174964 -0.00364975 0 255 0
-0.0300931 0.174947 -0.00337872 0 255 0
-0.0293999 0.17493 -0.0032152 0 255 0
-0.0289093 0.174913 -0.00337385 0 255 0
-0.0284863 0.174896 -0.0036399 0 255 0
-0.0279958 0.174879 -0.00379854 0 255 0
-0.0275728 0.174861 -0.00406459 0 255 0
-0.0271498 0.174844 -0.00433064 0 255 0
-0.0267944 0.174825 -0.00470409 0 255 0
-0.026439 0.174807 -0.00507755 0 255 0
-0.0260161 0.174789 -0.0053436 0 255 0
-0.0257282 0.174771 -0.00582447 0 255 0
-0.0253728 0.174754 -0.00619794 0 255 0
-0.0250849 0.174736 -0.00667873 0 255 0
-0.0247296 0.174717 -0.00705219 0 255 0
-0.0243741 0.1747 -0.00742566 0 255 0
-0.0240863 0.174682 -0.00790653 0 255 0
-0.0237309 0.174664 -0.0082799 0 255 0
-0.023443 0.174645 -0.00876078 0 255 0
-0.0230877 0.174627 -0.00913423 0 255 0
-0.0227998 0.174609 -0.00961511 0 255 0
-0.0224444 0.174591 -0.0099885 0 255 0
-0.0221565 0.174573 -0.0104694 0 255 0
-0.0218011 0.174555 -0.0108428 0 255 0
-0.0214457 0.174538 -0.0112163 0 255 0
-0.0210903 0.174519 -0.0115898 0 255 0
-0.0208025 0.174501 -0.0120705 0 255 0
-0.0203795 0.174484 -0.0123366 0 255 0
-0.0200241 0.174465 -0.01271 0 255 0
-0.0196011 0.174448 -0.0129761 0 255 0
-0.0192457 0.17443 -0.0133496 0 255 0
-0.0188227 0.174413 -0.0136156 0 255 0
-0.0184673 0.174394 -0.0139891 0 255 0
-0.0180444 0.174377 -0.0142551 0 255 0
-0.0176214 0.174359 -0.0145212 0 255 0
-0.017266 0.174342 -0.0148946 0 255 0
-0.016843 0.174324 -0.0151607 0 255 0
-0.01642 0.174306 -0.0154267 0 255 0
-0.0160646 0.174288 -0.0158002 0 255 0
-0.0156417 0.17427 -0.0160662 0 255 0
-0.0152187 0.174253 -0.0163323 0 255 0
-0.0147957 0.174235 -0.0165983 0 255 0
-0.0143727 0.174218 -0.0168644 0 255 0
-0.0140173 0.1742 -0.0172379 0 255 0
-0.0135943 0.174183 -0.0175039 0 255 0
-0.0131714 0.174165 -0.01777 0 255 0
-0.0126808 0.174147 -0.0179286 0 255 0
-0.0123254 0.17413 -0.0183021 0 255 0
-0.0119024 0.174112 -0.0185681 0 255 0
-0.0114795 0.174094 -0.0188341 0 255 0
-0.0110565 0.174077 -0.0191002 0 255 0
-0.0106335 0.174059 -0.0193662 0 255 0
-0.0102106 0.174042 -0.0196323 0 255 0
-0.00985511 0.174023 -0.0200057 0 255 0
-0.0093646 0.174006 -0.0201644 0 255 0
-0.00900916 0.173988 -0.0205378 0 255 0
-0.00865374 0.173971 -0.0209112 0 255 0
-0.00823077 0.173953 -0.0211773 0 255 0
-0.00787538 0.173935 -0.0215507 0 255 0
-0.00751997 0.173917 -0.0219242 0 255 0
-0.00709699 0.1739 -0.0221903 0 255 0
-0.00680919 0.173881 -0.0226711 0 255 0
-0.00645372 0.173863 -0.0230445 0 255 0
-0.00609834 0.173845 -0.023418 0 255 0
-0.00574292 0.173827 -0.0237914 0 255 0
-0.00545509 0.173809 -0.0242723 0 255 0
-0.00516721 0.173791 -0.0247531 0 255 0
-0.00487938 0.173773 -0.025234 0 255 0
-0.00465914 0.173754 -0.0258222 0 255 0
-0.00443885 0.173735 -0.0264104 0 255 0
-0.00415102 0.173717 -0.0268913 0 255 0
-0.00406587 0.173698 -0.0276943 0 255 0
-0.0036429 0.17368 -0.0279604 0 255 0
-0.00321992 0.173663 -0.0282264 0 255 0
-0.069406 0.17621 -0.0448208 0 255 0
-0.069055 0.176193 -0.0452013 0 255 0
-0.0684882 0.176174 -0.0452386 0 255 0
-0.0680652 0.176157 -0.0455046 0 255 0
-0.0675703 0.176139 -0.0456563 0 255 0
-0.0670036 0.17612 -0.0456937 0 255 0
-0.0665087 0.176102 -0.0458454 0 255 0
-0.0661576 0.176084 -0.0462258 0 255 0
-0.0658065 0.176068 -0.0466062 0 255 0
-0.0655273 0.176051 -0.0471009 0 255 0
-0.0651763 0.176034 -0.0474813 0 255 0
-0.0646814 0.176016 -0.047633 0 255 0
-0.0643303 0.175998 -0.0480134 0 255 0
-0.0639793 0.175982 -0.0483939 0 255 0
-0.0635563 0.175964 -0.0486599 0 255 0
-0.0632772 0.175947 -0.0491547 0 255 0
-0.0629261 0.17593 -0.0495351 0 255 0
-0.062575 0.175914 -0.0499155 0 255 0
-0.0622959 0.175896 -0.0504103 0 255 0
-0.0620167 0.175879 -0.050905 0 255 0
-0.0617376 0.175863 -0.0513998 0 255 0
-0.0616742 0.175848 -0.0522377 0 255 0
-0.0310933 0.175691 -0.00454835 0 255 0
-0.0304677 0.175675 -0.00449225 0 255 0
-0.0295717 0.175658 -0.00400648 0 255 0
-0.0288785 0.175642 -0.00384296 0 255 0
-0.0283204 0.175625 -0.00389419 0 255 0
-0.0278299 0.175607 -0.00405281 0 255 0
-0.0273393 0.17559 -0.00421146 0 255 0
-0.0269839 0.175572 -0.00458491 0 255 0
-0.0265609 0.175554 -0.00485096 0 255 0
-0.026138 0.175536 -0.00511701 0 255 0
-0.0257825 0.175519 -0.00549048 0 255 0
-0.0254272 0.175501 -0.00586393 0 255 0
-0.0250717 0.175483 -0.0062374 0 255 0
-0.0247163 0.175465 -0.00661077 0 255 0
-0.0243609 0.175448 -0.00698424 0 255 0
-0.0240731 0.175429 -0.00746512 0 255 0
-0.0237852 0.175411 -0.007946 0 255 0
-0.0234298 0.175394 -0.00831938 0 255 0
-0.0230744 0.175376 -0.00869284 0 255 0
-0.0227865 0.175357 -0.00917371 0 255 0
-0.0224311 0.17534 -0.00954718 0 255 0
-0.0221432 0.175322 -0.010028 0 255 0
-0.0217879 0.175304 -0.0104014 0 255 0
-0.0215 0.175285 -0.0108823 0 255 0
-0.0211446 0.175268 -0.0112558 0 255 0
-0.0207891 0.175251 -0.0116292 0 255 0
-0.0205013 0.175233 -0.01211 0 255 0
-0.0201459 0.175214 -0.0124835 0 255 0
-0.019723 0.175197 -0.0127495 0 255 0
-0.0193675 0.175179 -0.013123 0 255 0
-0.0190122 0.175161 -0.0134965 0 255 0
-0.0185892 0.175143 -0.0137625 0 255 0
-0.0182337 0.175126 -0.0141359 0 255 0
-0.0178107 0.175108 -0.0144019 0 255 0
-0.0174553 0.17509 -0.0147754 0 255 0
-0.0170324 0.175072 -0.0150415 0 255 0
-0.0166094 0.175055 -0.0153075 0 255 0
-0.016254 0.175037 -0.015681 0 255 0
-0.015831 0.17502 -0.015947 0 255 0
-0.015408 0.175002 -0.0162131 0 255 0
-0.0149851 0.174984 -0.0164791 0 255 0
-0.0146297 0.174966 -0.0168526 0 255 0
-0.0142067 0.174949 -0.0171186 0 255 0
-0.0137837 0.174931 -0.0173847 0 255 0
-0.0134283 0.174914 -0.0177581 0 255 0
-0.0129378 0.174896 -0.0179168 0 255 0
-0.0125824 0.174878 -0.0182902 0 255 0
-0.0121594 0.174861 -0.0185563 0 255 0
-0.0117364 0.174843 -0.0188223 0 255 0
-0.0113134 0.174825 -0.0190884 0 255 0
-0.010958 0.174807 -0.0194618 0 255 0
-0.0105351 0.174789 -0.0197279 0 255 0
-0.0101121 0.174772 -0.0199939 0 255 0
-0.00975662 0.174755 -0.0203673 0 255 0
-0.00933365 0.174737 -0.0206334 0 255 0
-0.00897826 0.174719 -0.0210068 0 255 0
-0.00855528 0.174701 -0.0212729 0 255 0
-0.00819987 0.174684 -0.0216463 0 255 0
-0.00777689 0.174666 -0.0219124 0 255 0
-0.00742148 0.174649 -0.0222859 0 255 0
-0.00706609 0.17463 -0.0226593 0 255 0
-0.00671067 0.174613 -0.0230328 0 255 0
-0.00635523 0.174594 -0.0234062 0 255 0
-0.0060674 0.174576 -0.023887 0 255 0
-0.00571199 0.174559 -0.0242605 0 255 0
-0.00542411 0.174541 -0.0247413 0 255 0
-0.00520387 0.174522 -0.0253296 0 255 0
-0.00491598 0.174504 -0.0258104 0 255 0
-0.00462813 0.174487 -0.0262913 0 255 0
-0.00440789 0.174468 -0.0268795 0 255 0
-0.00418756 0.17445 -0.0274678 0 255 0
-0.00396732 0.174431 -0.028056 0 255 0
-0.0034092 0.174414 -0.0281073 0 255 0
-0.0692528 0.176959 -0.0460364 0 255 0
-0.0689737 0.176942 -0.0465312 0 255 0
-0.0684069 0.176923 -0.0465685 0 255 0
-0.0676962 0.176904 -0.046377 0 255 0
-0.067489 0.176888 -0.0469862 0 255 0
-0.0669222 0.176869 -0.0470235 0 255 0
-0.0664273 0.176851 -0.0471752 0 255 0
-0.0660043 0.176833 -0.0474412 0 255 0
-0.0657252 0.176817 -0.047936 0 255 0
-0.0653741 0.1768 -0.0483164 0 255 0
-0.0649512 0.176782 -0.0485825 0 255 0
-0.0646001 0.176765 -0.0489629 0 255 0
-0.064249 0.176749 -0.0493433 0 255 0
-0.063826 0.176731 -0.0496094 0 255 0
-0.063475 0.176714 -0.0499898 0 255 0
-0.063052 0.176696 -0.0502558 0 255 0
-0.062701 0.176679 -0.0506363 0 255 0
-0.0623499 0.176661 -0.0510167 0 255 0
-0.0619988 0.176645 -0.0513971 0 255 0
-0.0617916 0.176629 -0.0520063 0 255 0
-0.0615164 0.176612 -0.0525073 0 255 0
-0.0612452 0.176595 -0.0530147 0 255 0
-0.0610499 0.176578 -0.0536427 0 255 0
-0.0300814 0.176387 -0.00533477 0 255 0
-0.0289152 0.176371 -0.00441942 0 255 0
-0.0282896 0.176353 -0.00436322 0 255 0
-0.0276639 0.176336 -0.0043071 0 255 0
-0.027241 0.176318 -0.00457315 0 255 0
-0.0267504 0.176301 -0.00473179 0 255 0
-0.0263274 0.176284 -0.00499784 0 255 0
-0.025972 0.176265 -0.0053713 0 255 0
-0.0255491 0.176248 -0.00563735 0 255 0
-0.0251261 0.17623 -0.00590339 0 255 0
-0.0247707 0.176213 -0.00627687 0 255 0
-0.0244152 0.176195 -0.00665034 0 255 0
-0.0240598 0.176177 -0.00702371 0 255 0
-0.023772 0.176159 -0.00750458 0 255 0
-0.0234166 0.176142 -0.00787805 0 255 0
-0.0230611 0.176124 -0.00825152 0 255 0
-0.0227733 0.176106 -0.00873231 0 255 0
-0.0224179 0.176088 -0.00910577 0 255 0
-0.02213 0.176071 -0.00958666 0 255 0
-0.0218421 0.176052 -0.0100675 0 255 0
-0.0214868 0.176034 -0.0104409 0 255 0
-0.0211313 0.176017 -0.0108144 0 255 0
-0.0207759 0.175999 -0.0111878 0 255 0
-0.020488 0.175981 -0.0116686 0 255 0
-0.0201326 0.175964 -0.0120421 0 255 0
-0.0197772 0.175946 -0.0124156 0 255 0
-0.0194218 0.175928 -0.012789 0 255 0
-0.0191339 0.17591 -0.0132698 0 255 0
-0.018711 0.175892 -0.0135359 0 255 0
-0.0183555 0.175875 -0.0139093 0 255 0
-0.0180002 0.175857 -0.0142828 0 255 0
-0.0175772 0.175839 -0.0145488 0 255 0
-0.0172218 0.175822 -0.0149223 0 255 0
-0.0167988 0.175804 -0.0151884 0 255 0
-0.0164434 0.175786 -0.0155618 0 255 0
-0.0160204 0.175768 -0.0158279 0 255 0
-0.0155975 0.17575 -0.0160939 0 255 0
-0.0151745 0.175733 -0.01636 0 255 0
-0.014819 0.175715 -0.0167334 0 255 0
-0.0144636 0.175698 -0.0171068 0 255 0
-0.0139731 0.17568 -0.0172655 0 255 0
-0.0136176 0.175663 -0.0176389 0 255 0
-0.0132623 0.175645 -0.0180124 0 255 0
-0.0128393 0.175627 -0.0182784 0 255 0
-0.0124163 0.175609 -0.0185445 0 255 0
-0.0119933 0.175592 -0.0188105 0 255 0
-0.0115704 0.175574 -0.0190766 0 255 0
-0.0112149 0.175557 -0.01945 0 255 0
-0.010792 0.175539 -0.0197161 0 255 0
-0.0104366 0.175521 -0.0200895 0 255 0
-0.0100136 0.175503 -0.0203556 0 255 0
-0.00959063 0.175485 -0.0206216 0 255 0
-0.00923516 0.175468 -0.020995 0 255 0
-0.00887974 0.175451 -0.0213685 0 255 0
-0.00852435 0.175432 -0.021742 0 255 0
-0.00810138 0.175415 -0.022008 0 255 0
-0.00774596 0.175397 -0.0223815 0 255 0
-0.00739054 0.17538 -0.0227549 0 255 0
-0.0070351 0.175362 -0.0231283 0 255 0
-0.00667969 0.175344 -0.0235018 0 255 0
-0.0063243 0.175326 -0.0238752 0 255 0
-0.00596888 0.175309 -0.0242487 0 255 0
-0.00574856 0.175291 -0.0248369 0 255 0
-0.00546073 0.175273 -0.0253178 0 255 0
-0.00517285 0.175254 -0.0257986 0 255 0
-0.00495258 0.175236 -0.0263869 0 255 0
-0.00466475 0.175218 -0.0268678 0 255 0
-0.00444443 0.1752 -0.027456 0 255 0
-0.0042241 0.175183 -0.0280442 0 255 0
-0.00380113 0.175165 -0.0283102 0 255 0
-0.00337815 0.175147 -0.0285763 0 255 0
-0.069547 0.177711 -0.0479633 0 255 0
-0.0690481 0.177693 -0.0481087 0 255 0
-0.0686252 0.177676 -0.0483748 0 255 0
-0.0679026 0.177657 -0.0481645 0 255 0
-0.0672639 0.177637 -0.0480874 0 255 0
-0.0669128 0.17762 -0.0484679 0 255 0
-0.066418 0.177601 -0.0486195 0 255 0
-0.0659231 0.177583 -0.0487712 0 255 0
-0.065572 0.177566 -0.0491516 0 255 0
-0.0652929 0.17755 -0.0496464 0 255 0
-0.0648699 0.177532 -0.0499125 0 255 0
-0.0645188 0.177516 -0.0502929 0 255 0
-0.063952 0.177497 -0.0503302 0 255 0
-0.0636729 0.177481 -0.050825 0 255 0
-0.0633218 0.177463 -0.0512054 0 255 0
-0.0628269 0.177446 -0.0513571 0 255 0
-0.0624759 0.177428 -0.0517375 0 255 0
-0.0622047 0.177411 -0.0522449 0 255 0
-0.0618576 0.177394 -0.0526316 0 255 0
-0.0615104 0.177376 -0.0530183 0 255 0
-0.0612392 0.177359 -0.0535256 0 255 0
-0.0610439 0.177343 -0.0541537 0 255 0
-0.0607727 0.177326 -0.054661 0 255 0
-0.0605015 0.177308 -0.0551683 0 255 0
-0.0287316 0.177082 -0.0055841 0 255 0
-0.0276331 0.177065 -0.00477615 0 255 0
-0.0272101 0.177048 -0.0050422 0 255 0
-0.026652 0.17703 -0.00509349 0 255 0
-0.0261615 0.177013 -0.00525213 0 255 0
-0.0257385 0.176995 -0.00551818 0 255 0
-0.0253155 0.176978 -0.00578423 0 255 0
-0.0248926 0.17696 -0.00605028 0 255 0
-0.0245372 0.176942 -0.00642373 0 255 0
-0.0241817 0.176924 -0.00679712 0 255 0
-0.0238263 0.176907 -0.00717059 0 255 0
-0.0234709 0.176889 -0.00754406 0 255 0
-0.0231155 0.176871 -0.00791751 0 255 0
-0.0227601 0.176854 -0.00829099 0 255 0
-0.0224046 0.176836 -0.00866446 0 255 0
-0.0221168 0.176818 -0.00914525 0 255 0
-0.0217614 0.176801 -0.00951872 0 255 0
-0.0214735 0.176783 -0.00999951 0 255 0
-0.0211856 0.176765 -0.0104804 0 255 0
-0.0207627 0.176747 -0.0107464 0 255 0
-0.0204748 0.17673 -0.0112272 0 255 0
-0.0201869 0.176712 -0.0117081 0 255 0
-0.0198315 0.176694 -0.0120816 0 255 0
-0.0194761 0.176677 -0.0124551 0 255 0
-0.0191882 0.176659 -0.0129359 0 255 0
-0.0188328 0.176641 -0.0133093 0 255 0
-0.0184774 0.176623 -0.0136828 0 255 0
-0.0180544 0.176606 -0.0139488 0 255 0
-0.017699 0.176588 -0.0143223 0 255 0
-0.0173435 0.176571 -0.0146957 0 255 0
-0.0169882 0.176552 -0.0150691 0 255 0
-0.0165652 0.176535 -0.0153352 0 255 0
-0.0162098 0.176517 -0.0157087 0 255 0
-0.0157868 0.1765 -0.0159747 0 255 0
-0.0153638 0.176482 -0.0162408 0 255 0
-0.0150084 0.176465 -0.0166142 0 255 0
-0.014653 0.176446 -0.0169876 0 255 0
-0.01423 0.176429 -0.0172536 0 255 0
-0.013807 0.176411 -0.0175197 0 255 0
-0.0134516 0.176394 -0.0178932 0 255 0
-0.0130286 0.176376 -0.0181592 0 255 0
-0.0126732 0.176359 -0.0185327 0 255 0
-0.0122502 0.176341 -0.0187987 0 255 0
-0.0118948 0.176323 -0.0191722 0 255 0
-0.0114719 0.176305 -0.0194382 0 255 0
-0.0110489 0.176288 -0.0197043 0 255 0
-0.0106935 0.17627 -0.0200778 0 255 0
-0.0102705 0.176253 -0.0203438 0 255 0
-0.00991508 0.176235 -0.0207173 0 255 0
-0.00955961 0.176218 -0.0210907 0 255 0
-0.00913664 0.1762 -0.0213567 0 255 0
-0.00884881 0.176182 -0.0218376 0 255 0
-0.00842583 0.176165 -0.0221036 0 255 0
-0.00807042 0.176147 -0.0224771 0 255 0
-0.00771503 0.176129 -0.0228506 0 255 0
-0.00735956 0.176111 -0.0232239 0 255 0
-0.00700414 0.176094 -0.0235974 0 255 0
-0.00664876 0.176076 -0.0239709 0 255 0
-0.00629334 0.176058 -0.0243443 0 255 0
-0.00600546 0.17604 -0.0248251 0 255 0
-0.0057176 0.176023 -0.025306 0 255 0
-0.00542972 0.176005 -0.0257868 0 255 0
-0.00520945 0.175987 -0.0263751 0 255 0
-0.00492153 0.17597 -0.0268559 0 255 0
-0.0046337 0.175952 -0.0273368 0 255 0
-0.00441338 0.175934 -0.027925 0 255 0
-0.00419311 0.175916 -0.0285133 0 255 0
-0.00356743 0.175899 -0.0284571 0 255 0
-0.0696927 0.178477 -0.0487156 0 255 0
-0.069118 0.178459 -0.0487403 0 255 0
-0.068695 0.178441 -0.0490064 0 255 0
-0.0681961 0.178424 -0.0491517 0 255 0
-0.0675456 0.178404 -0.0490559 0 255 0
-0.0671985 0.178387 -0.0494426 0 255 0
-0.0668514 0.178369 -0.0498292 0 255 0
-0.0663525 0.178352 -0.0499747 0 255 0
-0.0657019 0.178333 -0.0498787 0 255 0
-0.0654307 0.178316 -0.0503861 0 255 0
-0.0651595 0.178299 -0.0508934 0 255 0
-0.0648123 0.178283 -0.0512801 0 255 0
-0.0642377 0.178263 -0.0513049 0 255 0
-0.0638905 0.178246 -0.0516916 0 255 0
-0.0635434 0.17823 -0.0520783 0 255 0
-0.0630446 0.178211 -0.0522237 0 255 0
-0.0626216 0.178193 -0.0524897 0 255 0
-0.0623504 0.178177 -0.0529971 0 255 0
-0.0619274 0.17816 -0.0532632 0 255 0
-0.0615803 0.178142 -0.0536499 0 255 0
-0.0613091 0.178125 -0.0541572 0 255 0
-0.060962 0.178108 -0.0545439 0 255 0
-0.0606907 0.178091 -0.0550512 0 255 0
-0.0603436 0.178073 -0.0554379 0 255 0
-0.0601483 0.178057 -0.0560659 0 255 0
-0.0600288 0.178041 -0.0568146 0 255 0
-0.0271117 0.177777 -0.00540391 0 255 0
-0.0266212 0.177759 -0.00556254 0 255 0
-0.0260631 0.177742 -0.00561376 0 255 0
-0.0255726 0.177724 -0.00577247 0 255 0
-0.0251496 0.177707 -0.00603852 0 255 0
-0.0247266 0.177689 -0.00630457 0 255 0
-0.0243037 0.177671 -0.00657062 0 255 0
-0.0238807 0.177654 -0.00683666 0 255 0
-0.0235252 0.177636 -0.00721005 0 255 0
-0.0231698 0.177619 -0.00758352 0 255 0
-0.0228144 0.177601 -0.00795698 0 255 0
-0.022459 0.177583 -0.00833045 0 255 0
-0.0221711 0.177566 -0.00881126 0 255 0
-0.0218157 0.177548 -0.00918471 0 255 0
-0.0214603 0.17753 -0.00955818 0 255 0
-0.0211049 0.177513 -0.00993165 0 255 0
-0.020817 0.177495 -0.0104124 0 255 0
-0.0204616 0.177477 -0.0107859 0 255 0
-0.0201737 0.17746 -0.0112668 0 255 0
-0.0198183 0.177442 -0.0116402 0 255 0
-0.0195304 0.177425 -0.0121211 0 255 0
-0.0191749 0.177407 -0.0124945 0 255 0
-0.0188871 0.177389 -0.0129753 0 255 0
-0.0185317 0.177372 -0.0133488 0 255 0
-0.0181763 0.177355 -0.0137223 0 255 0
-0.0178208 0.177337 -0.0140957 0 255 0
-0.0174654 0.177319 -0.0144691 0 255 0
-0.01711 0.177302 -0.0148426 0 255 0
-0.0167546 0.177284 -0.0152161 0 255 0
-0.0163316 0.177267 -0.0154821 0 255 0
-0.0159761 0.177249 -0.0158555 0 255 0
-0.0155532 0.177232 -0.0161215 0 255 0
-0.0151978 0.177213 -0.016495 0 255 0
-0.0148424 0.177196 -0.0168685 0 255 0
-0.0144194 0.177178 -0.0171345 0 255 0
-0.014064 0.177161 -0.017508 0 255 0
-0.013641 0.177143 -0.017774 0 255 0
-0.0132856 0.177126 -0.0181475 0 255 0
-0.0128626 0.177108 -0.0184136 0 255 0
-0.0125072 0.17709 -0.0187869 0 255 0
-0.0121517 0.177072 -0.0191604 0 255 0
-0.0117288 0.177055 -0.0194264 0 255 0
-0.0113058 0.177037 -0.0196925 0 255 0
-0.0109504 0.17702 -0.020066 0 255 0
-0.010595 0.177003 -0.0204394 0 255 0
-0.010172 0.176985 -0.0207055 0 255 0
-0.00981659 0.176967 -0.0210789 0 255 0
-0.00946112 0.176949 -0.0214523 0 255 0
-0.0091057 0.176932 -0.0218258 0 255 0
-0.00868273 0.176914 -0.0220918 0 255 0
-0.00832731 0.176897 -0.0224653 0 255 0
-0.00803943 0.176879 -0.0229461 0 255 0
-0.00761645 0.176861 -0.0232122 0 255 0
-0.00726104 0.176844 -0.0235856 0 255 0
-0.00690562 0.176826 -0.0239591 0 255 0
-0.00661774 0.176808 -0.0244399 0 255 0
-0.00626232 0.176791 -0.0248134 0 255 0
-0.00597446 0.176774 -0.0252942 0 255 0
-0.00568658 0.176756 -0.025775 0 255 0
-0.00539872 0.176738 -0.0262559 0 255 0
-0.0051784 0.176721 -0.0268441 0 255 0
-0.00489054 0.176703 -0.027325 0 255 0
-0.00460266 0.176685 -0.0278058 0 255 0
-0.00444989 0.176668 -0.0285015 0 255 0
-0.00389182 0.176651 -0.0285528 0 255 0
-0.0693395 0.179225 -0.0496131 0 255 0
-0.0688407 0.179207 -0.0497585 0 255 0
-0.0684936 0.17919 -0.0501452 0 255 0
-0.0680706 0.179173 -0.0504113 0 255 0
-0.0674959 0.179154 -0.0504361 0 255 0
-0.0669971 0.179136 -0.0505815 0 255 0
-0.0667258 0.179119 -0.0510888 0 255 0
-0.0661511 0.179101 -0.0511136 0 255 0
-0.065804 0.179084 -0.0515003 0 255 0
-0.0653052 0.179066 -0.0516457 0 255 0
-0.0649581 0.179049 -0.0520324 0 255 0
-0.0644592 0.179031 -0.0521778 0 255 0
-0.0640362 0.179013 -0.0524438 0 255 0
-0.0636891 0.178996 -0.0528305 0 255 0
-0.063342 0.178979 -0.0532172 0 255 0
-0.0628432 0.178961 -0.0533626 0 255 0
-0.0624961 0.178943 -0.0537493 0 255 0
-0.062149 0.178926 -0.054136 0 255 0
-0.0618019 0.178909 -0.0545227 0 255 0
-0.0613789 0.178891 -0.0547888 0 255 0
-0.0610318 0.178874 -0.0551754 0 255 0
-0.0606847 0.178857 -0.0555621 0 255 0
-0.0604134 0.17884 -0.0560694 0 255 0
-0.0600663 0.178823 -0.0564561 0 255 0
-0.0598709 0.178807 -0.0570841 0 255 0
-0.0596756 0.17879 -0.0577122 0 255 0
-0.0265903 0.17849 -0.0060316 0 255 0
-0.0260322 0.178471 -0.00608281 0 255 0
-0.0254741 0.178453 -0.00613409 0 255 0
-0.0250512 0.178436 -0.00640014 0 255 0
-0.0245606 0.178418 -0.00655877 0 255 0
-0.0241377 0.1784 -0.00682482 0 255 0
-0.0237147 0.178383 -0.00709087 0 255 0
-0.0232917 0.178365 -0.00735692 0 255 0
-0.0229363 0.178348 -0.00773039 0 255 0
-0.0225133 0.17833 -0.00799644 0 255 0
-0.0221579 0.178313 -0.00836991 0 255 0
-0.0218024 0.178295 -0.00874329 0 255 0
-0.0215146 0.178278 -0.00922419 0 255 0
-0.0210916 0.178261 -0.00949024 0 255 0
-0.0207362 0.178242 -0.00986369 0 255 0
-0.0204483 0.178225 -0.0103445 0 255 0
-0.0201604 0.178208 -0.0108254 0 255 0
-0.019805 0.178191 -0.0111989 0 255 0
-0.0195171 0.178172 -0.0116797 0 255 0
-0.0191617 0.178155 -0.0120531 0 255 0
-0.0188063 0.178138 -0.0124266 0 255 0
-0.0185184 0.178121 -0.0129074 0 255 0
-0.018163 0.178103 -0.0132809 0 255 0
-0.0178751 0.178085 -0.0137617 0 255 0
-0.0175197 0.178068 -0.0141351 0 255 0
-0.0171643 0.17805 -0.0145086 0 255 0
-0.0168089 0.178033 -0.0148821 0 255 0
-0.0164534 0.178016 -0.0152556 0 255 0
-0.016098 0.177997 -0.0156289 0 255 0
-0.0157426 0.17798 -0.0160024 0 255 0
-0.0153872 0.177963 -0.0163759 0 255 0
-0.0149642 0.177945 -0.0166419 0 255 0
-0.0146087 0.177928 -0.0170153 0 255 0
-0.0142533 0.17791 -0.0173888 0 255 0
-0.0138979 0.177893 -0.0177622 0 255 0
-0.0134749 0.177875 -0.0180283 0 255 0
-0.0131195 0.177857 -0.0184017 0 255 0
-0.012764 0.177839 -0.0187751 0 255 0
-0.0124086 0.177822 -0.0191486 0 255 0
-0.0119857 0.177804 -0.0194146 0 255 0
-0.0115627 0.177787 -0.0196807 0 255 0
-0.0112073 0.177769 -0.0200542 0 255 0
-0.0108518 0.177752 -0.0204276 0 255 0
-0.0104289 0.177734 -0.0206937 0 255 0
-0.0100734 0.177717 -0.0210671 0 255 0
-0.00971802 0.177699 -0.0214405 0 255 0
-0.0093626 0.177681 -0.021814 0 255 0
-0.00893962 0.177664 -0.02208 0 255 0
-0.00858421 0.177646 -0.0224535 0 255 0
-0.0082963 0.177629 -0.0229343 0 255 0
-0.00787332 0.177612 -0.0232004 0 255 0
-0.0075179 0.177594 -0.0235738 0 255 0
-0.00716252 0.177576 -0.0239473 0 255 0
-0.0068746 0.177559 -0.0244281 0 255 0
-0.00658675 0.177542 -0.024909 0 255 0
-0.00623133 0.177524 -0.0252825 0 255 0
-0.00594345 0.177506 -0.0257633 0 255 0
-0.00572309 0.177489 -0.0263515 0 255 0
-0.00543523 0.177472 -0.0268324 0 255 0
-0.00514735 0.177454 -0.0273132 0 255 0
-0.00492705 0.177437 -0.0279015 0 255 0
-0.00457158 0.17742 -0.0282749 0 255 0
-0.00414861 0.177402 -0.0285409 0 255 0
-0.0691381 0.179975 -0.050752 0 255 0
-0.0684875 0.179957 -0.0506561 0 255 0
-0.0681404 0.179939 -0.0510428 0 255 0
-0.0677174 0.179922 -0.0513088 0 255 0
-0.0672186 0.179904 -0.0514543 0 255 0
-0.0667956 0.179886 -0.0517203 0 255 0
-0.0663726 0.179869 -0.0519864 0 255 0
-0.0659496 0.179851 -0.0522524 0 255 0
-0.0654508 0.179833 -0.0523978 0 255 0
-0.0651796 0.179816 -0.0529051 0 255 0
-0.0646807 0.179798 -0.0530506 0 255 0
-0.0642577 0.179781 -0.0533166 0 255 0
-0.0638348 0.179763 -0.0535827 0 255 0
-0.0634877 0.179746 -0.0539693 0 255 0
-0.0630647 0.179728 -0.0542354 0 255 0
-0.0627176 0.179711 -0.0546221 0 255 0
-0.0622946 0.179693 -0.0548881 0 255 0
-0.0619475 0.179676 -0.0552748 0 255 0
-0.0615245 0.179658 -0.0555408 0 255 0
-0.0611015 0.17964 -0.0558069 0 255 0
-0.0608303 0.179624 -0.0563142 0 255 0
-0.0604831 0.179607 -0.0567009 0 255 0
-0.0601361 0.17959 -0.0570876 0 255 0
-0.0598648 0.179574 -0.057595 0 255 0
-0.0595936 0.179557 -0.0581023 0 255 0
-0.0594741 0.179541 -0.0588509 0 255 0
-0.0594304 0.179526 -0.0597201 0 255 0
-0.0254432 0.179184 -0.00660316 0 255 0
-0.0249527 0.179166 -0.00676179 0 255 0
-0.0243947 0.179148 -0.00681308 0 255 0
-0.0239717 0.17913 -0.00707913 0 255 0
-0.0235487 0.179113 -0.00734517 0 255 0
-0.0231258 0.179095 -0.00761122 0 255 0
-0.0227028 0.179077 -0.00787727 0 255 0
-0.0223474 0.17906 -0.00825074 0 255 0
-0.0219244 0.179042 -0.00851679 0 255 0
-0.0215014 0.179025 -0.00878284 0 255 0
-0.0211459 0.179007 -0.00915623 0 255 0
-0.0207905 0.17899 -0.0095297 0 255 0
-0.0205027 0.178973 -0.0100106 0 255 0
-0.0201472 0.178955 -0.010384 0 255 0
-0.0198594 0.178937 -0.0108649 0 255 0
-0.0195039 0.17892 -0.0112383 0 255 0
-0.0191485 0.178903 -0.0116117 0 255 0
-0.0188606 0.178886 -0.0120926 0 255 0
-0.0185052 0.178868 -0.0124661 0 255 0
-0.0182173 0.178851 -0.0129469 0 255 0
-0.0178619 0.178834 -0.0133204 0 255 0
-0.017574 0.178816 -0.0138011 0 255 0
-0.0172186 0.178798 -0.0141746 0 255 0
-0.0168632 0.178781 -0.0145481 0 255 0
-0.0165752 0.178764 -0.0150289 0 255 0
-0.0162198 0.178746 -0.0154024 0 255 0
-0.0158644 0.178729 -0.0157758 0 255 0
-0.0155089 0.178712 -0.0161492 0 255 0
-0.0151535 0.178694 -0.0165227 0 255 0
-0.0147981 0.178677 -0.0168962 0 255 0
-0.0144427 0.17866 -0.0172696 0 255 0
-0.0140197 0.178642 -0.0175357 0 255 0
-0.0136642 0.178625 -0.0179091 0 255 0
-0.0133089 0.178606 -0.0182825 0 255 0
-0.0129534 0.178589 -0.018656 0 255 0
-0.012598 0.178571 -0.0190295 0 255 0
-0.012175 0.178554 -0.0192955 0 255 0
-0.0118196 0.178536 -0.0196689 0 255 0
-0.0114642 0.178519 -0.0200424 0 255 0
-0.0111087 0.178502 -0.0204158 0 255 0
-0.0106858 0.178484 -0.0206819 0 255 0
-0.0103303 0.178467 -0.0210553 0 255 0
-0.00997488 0.178449 -0.0214288 0 255 0
-0.00961947 0.178432 -0.0218022 0 255 0
-0.00919649 0.178414 -0.0220683 0 255 0
-0.00890858 0.178397 -0.0225491 0 255 0
-0.0084856 0.17838 -0.0228151 0 255 0
-0.00813022 0.178361 -0.0231886 0 255 0
-0.0077748 0.178344 -0.0235621 0 255 0
-0.00748689 0.178327 -0.0240429 0 255 0
-0.00713147 0.178309 -0.0244163 0 255 0
-0.00684361 0.178292 -0.0248972 0 255 0
-0.00648814 0.178275 -0.0252706 0 255 0
-0.00620028 0.178258 -0.0257515 0 255 0
-0.00597996 0.17824 -0.0263397 0 255 0
-0.0056921 0.178223 -0.0268206 0 255 0
-0.00547174 0.178206 -0.0274088 0 255 0
-0.00518383 0.178189 -0.0278896 0 255 0
-0.00482841 0.178171 -0.0282631 0 255 0
-0.00440544 0.178154 -0.0285292 0 255 0
-0.0686331 0.180724 -0.0514082 0 255 0
-0.0683618 0.180708 -0.0519155 0 255 0
-0.0677871 0.180688 -0.0519403 0 255 0
-0.0673642 0.180671 -0.0522063 0 255 0
-0.0669412 0.180653 -0.0524724 0 255 0
-0.0664423 0.180635 -0.0526178 0 255 0
-0.0660952 0.180618 -0.0530045 0 255 0
-0.0656723 0.1806 -0.0532705 0 255 0
-0.0653251 0.180584 -0.0536572 0 255 0
-0.064978 0.180567 -0.0540439 0 255 0
-0.0644033 0.180548 -0.0540687 0 255 0
-0.0641321 0.180532 -0.054576 0 255 0
-0.0636332 0.180514 -0.0547214 0 255 0
-0.0632861 0.180496 -0.0551081 0 255 0
-0.0628631 0.180479 -0.0553742 0 255 0
-0.062516 0.180461 -0.0557608 0 255 0
-0.062093 0.180444 -0.0560269 0 255 0
-0.0617459 0.180427 -0.0564136 0 255 0
-0.0612471 0.180409 -0.056559 0 255 0
-0.0609758 0.180392 -0.0570663 0 255 0
-0.0606287 0.180375 -0.057453 0 255 0
-0.0603574 0.180359 -0.0579603 0 255 0
-0.0599344 0.180341 -0.0582264 0 255 0
-0.0595873 0.180324 -0.058613 0 255 0
-0.0595437 0.18031 -0.0594823 0 255 0
-0.0594241 0.180294 -0.0602309 0 255 0
-0.059077 0.180277 -0.0606176 0 255 0
-0.025192 0.179897 -0.00766045 0 255 0
-0.0244313 0.179879 -0.00738956 0 255 0
-0.0239408 0.179861 -0.00754819 0 255 0
-0.0233828 0.179843 -0.00759948 0 255 0
-0.0229598 0.179825 -0.00786553 0 255 0
-0.0225368 0.179807 -0.00813158 0 255 0
-0.0221138 0.17979 -0.00839763 0 255 0
-0.0216909 0.179772 -0.00866368 0 255 0
-0.0212679 0.179755 -0.00892972 0 255 0
-0.0209124 0.179737 -0.00930311 0 255 0
-0.020557 0.17972 -0.00967658 0 255 0
-0.0202016 0.179702 -0.0100501 0 255 0
-0.0198462 0.179685 -0.0104235 0 255 0
-0.0194907 0.179668 -0.0107969 0 255 0
-0.0191353 0.17965 -0.0111704 0 255 0
-0.0188474 0.179633 -0.0116512 0 255 0
-0.018492 0.179616 -0.0120247 0 255 0
-0.0181365 0.179599 -0.0123981 0 255 0
-0.0178486 0.179581 -0.0128789 0 255 0
-0.0175608 0.179564 -0.0133598 0 255 0
-0.0172053 0.179547 -0.0137332 0 255 0
-0.0169175 0.179529 -0.0142141 0 255 0
-0.016562 0.179511 -0.0145876 0 255 0
-0.0162741 0.179494 -0.0150684 0 255 0
-0.0159187 0.179477 -0.0154418 0 255 0
-0.0155632 0.179459 -0.0158152 0 255 0
-0.0152754 0.179442 -0.0162961 0 255 0
-0.01492 0.179425 -0.0166696 0 255 0
-0.0145645 0.179408 -0.017043 0 255 0
-0.0142091 0.17939 -0.0174165 0 255 0
-0.0138537 0.179373 -0.0177899 0 255 0
-0.0134982 0.179356 -0.0181633 0 255 0
-0.0131428 0.179338 -0.0185368 0 255 0
-0.0127874 0.179321 -0.0189103 0 255 0
-0.0124319 0.179303 -0.0192837 0 255 0
-0.012009 0.179286 -0.0195498 0 255 0
-0.0116535 0.179268 -0.0199232 0 255 0
-0.0112981 0.179251 -0.0202966 0 255 0
-0.0109427 0.179234 -0.0206701 0 255 0
-0.0105872 0.179216 -0.0210436 0 255 0
-0.0101643 0.179199 -0.0213096 0 255 0
-0.0098088 0.179181 -0.021683 0 255 0
-0.00945339 0.179164 -0.0220565 0 255 0
-0.00909797 0.179147 -0.0224299 0 255 0
-0.0087425 0.179129 -0.0228033 0 255 0
-0.00838708 0.179112 -0.0231768 0 255 0
-0.00803167 0.179094 -0.0235503 0 255 0
-0.00774375 0.179077 -0.0240311 0 255 0
-0.00738834 0.17906 -0.0244046 0 255 0
-0.00710042 0.179043 -0.0248854 0 255 0
-0.00674501 0.179025 -0.0252588 0 255 0
-0.00652465 0.179009 -0.0258471 0 255 0
-0.00623679 0.178991 -0.026328 0 255 0
-0.00601644 0.178975 -0.0269162 0 255 0
-0.00572853 0.178957 -0.027397 0 255 0
-0.00537311 0.17894 -0.0277705 0 255 0
-0.00501769 0.178923 -0.0281439 0 255 0
-0.00479734 0.178906 -0.0287322 0 255 0
-0.0675855 0.18144 -0.0530791 0 255 0
-0.0670867 0.181422 -0.0532244 0 255 0
-0.0666637 0.181405 -0.0534905 0 255 0
-0.0662407 0.181387 -0.0537565 0 255 0
-0.0658177 0.181369 -0.0540226 0 255 0
-0.0654707 0.181352 -0.0544093 0 255 0
-0.0651993 0.181336 -0.0549166 0 255 0
-0.0645488 0.181317 -0.0548207 0 255 0
-0.0642776 0.181301 -0.0553281 0 255 0
-0.0638546 0.181283 -0.0555942 0 255 0
-0.0633558 0.181264 -0.0557396 0 255 0
-0.0630087 0.181248 -0.0561263 0 255 0
-0.0625857 0.18123 -0.0563923 0 255 0
-0.0622385 0.181213 -0.0567789 0 255 0
-0.0619673 0.181197 -0.0572863 0 255 0
-0.0616202 0.181179 -0.057673 0 255 0
-0.0611213 0.181161 -0.0578184 0 255 0
-0.0607742 0.181144 -0.0582051 0 255 0
-0.0605029 0.181128 -0.0587123 0 255 0
-0.0604592 0.181114 -0.0595815 0 255 0
-0.0599925 0.181082 -0.0607168 0 255 0
-0.0593419 0.181063 -0.060621 0 255 0
-0.0590707 0.181045 -0.0611283 0 255 0
-0.0239775 0.180591 -0.00812468 0 255 0
-0.0232843 0.180573 -0.00796112 0 255 0
-0.0228613 0.180555 -0.00822717 0 255 0
-0.0225059 0.180538 -0.00860064 0 255 0
-0.0220154 0.18052 -0.00875927 0 255 0
-0.0215249 0.180501 -0.00891788 0 255 0
-0.0211019 0.180484 -0.00918393 0 255 0
-0.0206789 0.180466 -0.00944998 0 255 0
-0.0203235 0.18045 -0.00982347 0 255 0
-0.0199681 0.180432 -0.0101969 0 255 0
-0.0195451 0.180415 -0.010463 0 255 0
-0.0191896 0.180397 -0.0108364 0 255 0
-0.0188342 0.18038 -0.0112098 0 255 0
-0.0184788 0.180362 -0.0115833 0 255 0
-0.0181909 0.180345 -0.0120641 0 255 0
-0.0178355 0.180328 -0.0124376 0 255 0
-0.0175475 0.180311 -0.0129184 0 255 0
-0.0171921 0.180293 -0.0132919 0 255 0
-0.0169042 0.180276 -0.0137727 0 255 0
-0.0166164 0.180259 -0.0142536 0 255 0
-0.0162609 0.180243 -0.014627 0 255 0
-0.015973 0.180226 -0.0151079 0 255 0
