-0.049836 0.114373 -0.011110 66 245 66
-0.049512 0.114381 -0.010652 66 245 66
-0.048952 0.114349 -0.010643 66 245 66
-0.048688 0.114367 -0.010072 66 245 66
-0.048365 0.114375 -0.009614 66 245 66
-0.048041 0.114383 -0.009155 66 245 66
-0.047777 0.114401 -0.008585 66 245 66
-0.047513 0.114419 -0.008014 66 245 66
-0.047130 0.114417 -0.007668 66 245 66
-0.046866 0.114434 -0.007097 66 245 66
-0.046424 0.114423 -0.006864 66 245 66
-0.046160 0.114440 -0.006293 66 245 66
-0.045600 0.114409 -0.006283 66 245 66
-0.045158 0.114397 -0.006050 66 245 66
-0.044835 0.114405 -0.005591 66 245 66
-0.044393 0.114393 -0.005357 66 245 66
-0.044010 0.114391 -0.005011 66 245 66
-0.043628 0.114389 -0.004665 66 245 66
-0.043127 0.114368 -0.004543 66 245 66
-0.042626 0.114346 -0.004422 66 245 66
-0.042125 0.114324 -0.004300 66 245 66
-0.041624 0.114303 -0.004178 66 245 66
-0.041182 0.114291 -0.003944 66 245 66
-0.040740 0.114279 -0.003710 66 245 66
-0.040240 0.114258 -0.003589 66 245 66
-0.039679 0.114226 -0.003579 66 245 66
-0.039060 0.114185 -0.003682 66 245 66
-0.038441 0.114143 -0.003785 66 245 66
-0.037999 0.114132 -0.003551 66 245 66
-0.037676 0.114140 -0.003092 66 245 66
-0.037293 0.114138 -0.002746 66 245 66
-0.036970 0.114146 -0.002288 66 245 66
-0.036765 0.114173 -0.001605 66 245 66
-0.036323 0.114161 -0.001371 66 245 66
-0.035838 0.114637 0.007355 66 245 66
-0.035751 0.114684 0.008262 66 245 66
-0.035546 0.114712 0.008945 66 245 66
-0.035341 0.114739 0.009628 66 245 66
-0.035076 0.114757 0.010198 66 245 66
-0.034871 0.114785 0.010881 66 245 66
-0.034607 0.114802 0.011452 66 245 66
-0.034402 0.114830 0.012134 66 245 66
-0.034256 0.114868 0.012929 66 245 66
-0.034051 0.114895 0.013612 66 245 66
-0.033787 0.114913 0.014183 66 245 66
-0.033522 0.114931 0.014753 66 245 66
-0.033199 0.114939 0.015212 66 245 66
-0.032994 0.114966 0.015894 66 245 66
-0.032670 0.114974 0.016353 66 245 66
-0.032347 0.114982 0.016811 66 245 66
-0.032023 0.114990 0.017270 66 245 66
-0.031641 0.114988 0.017616 66 245 66
-0.031317 0.114996 0.018074 66 245 66
-0.030994 0.115004 0.018532 66 245 66
-0.030611 0.115002 0.018879 66 245 66
-0.030229 0.115000 0.019225 66 245 66
-0.029905 0.115008 0.019683 66 245 66
-0.029523 0.115006 0.020029 66 245 66
-0.029081 0.114994 0.020263 66 245 66
-0.028698 0.114992 0.020609 66 245 66
-0.028316 0.114990 0.020955 66 245 66
-0.027874 0.114979 0.021189 66 245 66
-0.027432 0.114967 0.021423 66 245 66
-0.026991 0.114955 0.021657 66 245 66
-0.026608 0.114953 0.022003 66 245 66
-0.026048 0.114922 0.022013 66 245 66
-0.025606 0.114910 0.022247 66 245 66
-0.025105 0.114888 0.022368 66 245 66
-0.024545 0.114857 0.022378 66 245 66
-0.024104 0.114845 0.022612 66 245 66
-0.023603 0.114823 0.022734 66 245 66
-0.023043 0.114792 0.022743 66 245 66
-0.022542 0.114770 0.022865 66 245 66
-0.021922 0.114729 0.022762 66 245 66
-0.021422 0.114707 0.022884 66 245 66
-0.020802 0.114666 0.022781 66 245 66
-0.020183 0.114624 0.022678 66 245 66
-0.019327 0.114544 0.022127 66 245 66
-0.019004 0.114552 0.022585 66 245 66
-0.018621 0.114550 0.022931 66 245 66
-0.018239 0.114548 0.023277 66 245 66
-0.017915 0.114556 0.023736 66 245 66
-0.017533 0.114554 0.024082 66 245 66
-0.017091 0.114542 0.024316 66 245 66
-0.016827 0.114560 0.024886 66 245 66
-0.016385 0.114548 0.025120 66 245 66
-0.016298 0.114595 0.026027 66 245 66
-0.016152 0.114633 0.026822 66 245 66
-0.015888 0.114651 0.027393 66 245 66
-0.015564 0.114658 0.027851 66 245 66
-0.015241 0.114666 0.028310 66 245 66
-0.014858 0.114664 0.028656 66 245 66
-0.014476 0.114663 0.029002 66 245 66
-0.014093 0.114661 0.029348 66 245 66
-0.013711 0.114659 0.029694 66 245 66
-0.013328 0.114657 0.030040 66 245 66
-0.012945 0.114655 0.030387 66 245 66
-0.012504 0.114643 0.030620 66 245 66
-0.012062 0.114631 0.030854 66 245 66
-0.011620 0.114619 0.031088 66 245 66
-0.011119 0.114598 0.031210 66 245 66
-0.010677 0.114586 0.031444 66 245 66
-0.010236 0.114574 0.031678 66 245 66
-0.009735 0.114553 0.031800 66 245 66
-0.009293 0.114541 0.032033 66 245 66
-0.008792 0.114519 0.032155 66 245 66
-0.008350 0.114507 0.032389 66 245 66
-0.007850 0.114486 0.032511 66 245 66
-0.007289 0.114454 0.032520 66 245 66
-0.006848 0.114442 0.032754 66 245 66
-0.006406 0.114431 0.032988 66 245 66
-0.005846 0.114399 0.032998 66 245 66
-0.005345 0.114377 0.033119 66 245 66
-0.004726 0.114336 0.033017 66 245 66
-0.004225 0.114314 0.033138 66 245 66
-0.003665 0.114283 0.033148 66 245 66
-0.003046 0.114242 0.033045 66 245 66
-0.002485 0.114210 0.033055 66 245 66
-0.001925 0.114179 0.033064 66 245 66
-0.001306 0.114137 0.032961 66 245 66
-0.000687 0.114096 0.032859 66 245 66
-0.000186 0.114074 0.032980 66 245 66
0.000433 0.114033 0.032878 66 245 66
0.000993 0.114001 0.032887 66 245 66
0.001553 0.113970 0.032897 66 245 66
0.002173 0.113929 0.032794 66 245 66
0.002792 0.113887 0.032691 66 245 66
0.003470 0.113836 0.032476 66 245 66
0.004030 0.113805 0.032486 66 245 66
0.004709 0.113753 0.032271 66 245 66
0.005446 0.113692 0.031944 66 245 66
0.006125 0.113641 0.031729 66 245 66
0.006803 0.113590 0.031514 66 245 66
0.007540 0.113529 0.031187 66 245 66
0.008633 0.113409 0.030186 66 245 66
0.009725 0.113288 0.029186 66 245 66
0.010286 0.113257 0.029195 66 245 66
0.010786 0.113235 0.029317 66 245 66
0.011169 0.113233 0.029663 66 245 66
0.011670 0.113212 0.029785 66 245 66
0.012171 0.113190 0.029906 66 245 66
0.012613 0.113178 0.030140 66 245 66
0.013054 0.113166 0.030374 66 245 66
0.013555 0.113145 0.030496 66 245 66
0.013997 0.113133 0.030730 66 245 66
0.014439 0.113121 0.030964 66 245 66
0.014880 0.113109 0.031198 66 245 66
0.015204 0.113117 0.031656 66 245 66
0.015468 0.113135 0.032227 66 245 66
0.015792 0.113143 0.032685 66 245 66
0.016115 0.113151 0.033143 66 245 66
0.016438 0.113159 0.033602 66 245 66
0.016762 0.113167 0.034060 66 245 66
0.017026 0.113185 0.034631 66 245 66
0.017409 0.113183 0.034977 66 245 66
0.017732 0.113191 0.035435 66 245 66
0.018056 0.113198 0.035893 66 245 66
0.018438 0.113197 0.036240 66 245 66
0.018880 0.113185 0.036473 66 245 66
0.019263 0.113183 0.036820 66 245 66
0.019645 0.113181 0.037166 66 245 66
0.019969 0.113189 0.037624 66 245 66
0.020233 0.113207 0.038195 66 245 66
0.020675 0.113195 0.038429 66 245 66
0.021057 0.113193 0.038775 66 245 66
0.021440 0.113191 0.039121 66 245 66
0.021941 0.113169 0.039243 66 245 66
0.022442 0.113148 0.039364 66 245 66
0.023061 0.113106 0.039262 66 245 66
0.023443 0.113104 0.039608 66 245 66
0.023826 0.113102 0.039954 66 245 66
0.024149 0.113110 0.040412 66 245 66
0.024591 0.113099 0.040646 66 245 66
0.024974 0.113097 0.040992 66 245 66
0.025415 0.113085 0.041226 66 245 66
0.025857 0.113073 0.041460 66 245 66
0.026358 0.113051 0.041582 66 245 66
0.026859 0.113030 0.041704 66 245 66
0.027360 0.113008 0.041825 66 245 66
0.027979 0.112967 0.041722 66 245 66
0.028717 0.112906 0.041395 66 245 66
0.029336 0.112864 0.041293 66 245 66
0.029955 0.112823 0.041190 66 245 66
0.030456 0.112801 0.041312 66 245 66
0.030839 0.112799 0.041658 66 245 66
0.031399 0.112768 0.041667 66 245 66
0.032077 0.112717 0.041452 66 245 66
0.032696 0.112675 0.041350 66 245 66
0.033434 0.112614 0.041022 66 245 66
0.034053 0.112573 0.040920 66 245 66
0.034850 0.112502 0.040480 66 245 66
0.039401 0.111867 0.033991 66 245 66
0.039902 0.111846 0.034112 66 245 66
-0.050294 0.114963 -0.013956 66 245 66
-0.049852 0.114951 -0.013722 66 245 66
-0.049470 0.114949 -0.013376 66 245 66
-0.049028 0.114937 -0.013142 66 245 66
-0.048705 0.114945 -0.012684 66 245 66
-0.048736 0.115012 -0.011552 66 245 66
-0.048472 0.115029 -0.010981 66 245 66
-0.048148 0.115037 -0.010523 66 245 66
-0.047943 0.115064 -0.009840 66 245 66
-0.047738 0.115091 -0.009157 66 245 66
-0.047474 0.115109 -0.008587 66 245 66
-0.047091 0.115107 -0.008241 66 245 66
-0.046709 0.115105 -0.007895 66 245 66
-0.046267 0.115093 -0.007661 66 245 66
-0.045944 0.115101 -0.007202 66 245 66
-0.045443 0.115079 -0.007081 66 245 66
-0.045060 0.115077 -0.006735 66 245 66
-0.044796 0.115095 -0.006164 66 245 66
-0.044413 0.115093 -0.005818 66 245 66
-0.043971 0.115081 -0.005584 66 245 66
-0.043589 0.115079 -0.005238 66 245 66
-0.043088 0.115058 -0.005116 66 245 66
-0.042587 0.115036 -0.004994 66 245 66
-0.042086 0.115014 -0.004873 66 245 66
-0.041644 0.115003 -0.004639 66 245 66
-0.041262 0.115001 -0.004293 66 245 66
-0.040761 0.114979 -0.004171 66 245 66
-0.040319 0.114967 -0.003937 66 245 66
-0.039818 0.114946 -0.003815 66 245 66
-0.039140 0.114895 -0.004030 66 245 66
-0.038580 0.114863 -0.004021 66 245 66
-0.038138 0.114852 -0.003787 66 245 66
-0.037696 0.114840 -0.003553 66 245 66
-0.037255 0.114828 -0.003319 66 245 66
-0.036931 0.114836 -0.002861 66 245 66
-0.036726 0.114863 -0.002178 66 245 66
-0.036403 0.114871 -0.001719 66 245 66
-0.035799 0.115322 0.006782 66 245 66
-0.035771 0.115379 0.007801 66 245 66
-0.035566 0.115406 0.008484 66 245 66
-0.035361 0.115433 0.009167 66 245 66
-0.035156 0.115461 0.009850 66 245 66
-0.034892 0.115478 0.010420 66 245 66
-0.034627 0.115496 0.010991 66 245 66
-0.034481 0.115533 0.011786 66 245 66
-0.034395 0.115580 0.012693 66 245 66
-0.034190 0.115607 0.013376 66 245 66
-0.033925 0.115624 0.013946 66 245 66
-0.033661 0.115642 0.014517 66 245 66
-0.033397 0.115660 0.015087 66 245 66
-0.033133 0.115677 0.015658 66 245 66
-0.032809 0.115685 0.016116 66 245 66
-0.032545 0.115702 0.016687 66 245 66
-0.032162 0.115700 0.017033 66 245 66
-0.031839 0.115708 0.017491 66 245 66
-0.031515 0.115716 0.017950 66 245 66
-0.031192 0.115724 0.018408 66 245 66
-0.030809 0.115722 0.018754 66 245 66
-0.030486 0.115729 0.019213 66 245 66
-0.030103 0.115727 0.019559 66 245 66
-0.029780 0.115735 0.020017 66 245 66
-0.029338 0.115723 0.020251 66 245 66
-0.028956 0.115721 0.020597 66 245 66
-0.028573 0.115719 0.020943 66 245 66
-0.028190 0.115717 0.021289 66 245 66
-0.027689 0.115696 0.021411 66 245 66
-0.027248 0.115684 0.021645 66 245 66
-0.026865 0.115682 0.021991 66 245 66
-0.026364 0.115660 0.022113 66 245 66
-0.025863 0.115639 0.022235 66 245 66
-0.025422 0.115627 0.022468 66 245 66
-0.024802 0.115586 0.022366 66 245 66
-0.024301 0.115564 0.022487 66 245 66
-0.023860 0.115553 0.022721 66 245 66
-0.023359 0.115531 0.022843 66 245 66
-0.022858 0.115509 0.022965 66 245 66
-0.022239 0.115468 0.022862 66 245 66
-0.021738 0.115447 0.022984 66 245 66
-0.021178 0.115415 0.022993 66 245 66
-0.020499 0.115365 0.022778 66 245 66
-0.019821 0.115314 0.022563 66 245 66
-0.019261 0.115282 0.022573 66 245 66
-0.018878 0.115280 0.022919 66 245 66
-0.018555 0.115288 0.023377 66 245 66
-0.018172 0.115286 0.023724 66 245 66
-0.017790 0.115284 0.024070 66 245 66
-0.017407 0.115282 0.024416 66 245 66
-0.017024 0.115280 0.024762 66 245 66
-0.016760 0.115298 0.025332 66 245 66
-0.016259 0.115276 0.025454 66 245 66
-0.016232 0.115333 0.026474 66 245 66
-0.016027 0.115360 0.027156 66 245 66
-0.015762 0.115377 0.027727 66 245 66
-0.015498 0.115395 0.028297 66 245 66
-0.015056 0.115383 0.028531 66 245 66
-0.014733 0.115391 0.028990 66 245 66
-0.014350 0.115389 0.029336 66 245 66
-0.013908 0.115377 0.029570 66 245 66
-0.013585 0.115385 0.030028 66 245 66
-0.013202 0.115383 0.030374 66 245 66
-0.012820 0.115381 0.030720 66 245 66
-0.012319 0.115359 0.030842 66 245 66
-0.011877 0.115348 0.031076 66 245 66
-0.011435 0.115336 0.031310 66 245 66
-0.010935 0.115314 0.031432 66 245 66
-0.010493 0.115302 0.031666 66 245 66
-0.009992 0.115281 0.031787 66 245 66
-0.009550 0.115269 0.032021 66 245 66
-0.009108 0.115257 0.032255 66 245 66
-0.008608 0.115236 0.032377 66 245 66
-0.008166 0.115224 0.032611 66 245 66
-0.007665 0.115202 0.032733 66 245 66
-0.007105 0.115171 0.032742 66 245 66
-0.006663 0.115159 0.032976 66 245 66
-0.006103 0.115128 0.032985 66 245 66
-0.005661 0.115116 0.033219 66 245 66
-0.005101 0.115085 0.033229 66 245 66
-0.004541 0.115053 0.033238 66 245 66
-0.003981 0.115022 0.033248 66 245 66
-0.003421 0.114991 0.033257 66 245 66
-0.002802 0.114950 0.033155 66 245 66
-0.002123 0.114899 0.032940 66 245 66
-0.001563 0.114867 0.032949 66 245 66
-0.000944 0.114826 0.032846 66 245 66
-0.000384 0.114795 0.032856 66 245 66
0.000176 0.114764 0.032865 66 245 66
0.000736 0.114732 0.032875 66 245 66
0.001355 0.114691 0.032772 66 245 66
0.001915 0.114660 0.032782 66 245 66
0.002476 0.114628 0.032791 66 245 66
0.003036 0.114597 0.032801 66 245 66
0.003714 0.114546 0.032586 66 245 66
0.004392 0.114495 0.032371 66 245 66
0.005012 0.114454 0.032268 66 245 66
0.005749 0.114394 0.031941 66 245 66
0.006428 0.114343 0.031726 66 245 66
0.007106 0.114292 0.031511 66 245 66
0.007962 0.114212 0.030960 66 245 66
0.009113 0.114082 0.029847 66 245 66
0.010028 0.113992 0.029183 66 245 66
0.010648 0.113951 0.029081 66 245 66
0.010971 0.113959 0.029539 66 245 66
0.011472 0.113938 0.029661 66 245 66
0.011914 0.113926 0.029895 66 245 66
0.012474 0.113894 0.029904 66 245 66
0.012856 0.113892 0.030250 66 245 66
0.013357 0.113871 0.030372 66 245 66
0.013858 0.113849 0.030494 66 245 66
0.014300 0.113838 0.030727 66 245 66
0.014683 0.113836 0.031074 66 245 66
0.015124 0.113824 0.031308 66 245 66
0.015389 0.113841 0.031878 66 245 66
0.015712 0.113849 0.032336 66 245 66
0.016035 0.113857 0.032795 66 245 66
0.016300 0.113874 0.033365 66 245 66
0.016682 0.113872 0.033711 66 245 66
0.017065 0.113870 0.034058 66 245 66
0.017329 0.113888 0.034628 66 245 66
0.017712 0.113886 0.034974 66 245 66
0.018035 0.113894 0.035433 66 245 66
0.018359 0.113901 0.035891 66 245 66
0.018800 0.113890 0.036125 66 245 66
0.019242 0.113878 0.036359 66 245 66
0.019684 0.113866 0.036593 66 245 66
0.020007 0.113874 0.037051 66 245 66
0.020331 0.113881 0.037509 66 245 66
0.020654 0.113889 0.037968 66 245 66
0.021037 0.113887 0.038314 66 245 66
0.021419 0.113885 0.038660 66 245 66
0.021920 0.113864 0.038782 66 245 66
0.022480 0.113832 0.038791 66 245 66
0.022981 0.113811 0.038913 66 245 66
0.023364 0.113809 0.039259 66 245 66
0.023746 0.113807 0.039605 66 245 66
0.024129 0.113805 0.039951 66 245 66
0.024512 0.113803 0.040298 66 245 66
0.024894 0.113801 0.040644 66 245 66
0.025336 0.113789 0.040878 66 245 66
0.025778 0.113777 0.041112 66 245 66
0.026338 0.113746 0.041121 66 245 66
0.026779 0.113734 0.041355 66 245 66
0.027340 0.113703 0.041364 66 245 66
0.027840 0.113681 0.041486 66 245 66
0.028460 0.113640 0.041383 66 245 66
0.029256 0.113570 0.040944 66 245 66
0.029876 0.113528 0.040841 66 245 66
0.030495 0.113487 0.040739 66 245 66
0.031114 0.113446 0.040636 66 245 66
0.031674 0.113415 0.040645 66 245 66
0.032293 0.113374 0.040543 66 245 66
0.032853 0.113342 0.040552 66 245 66
0.033473 0.113301 0.040450 66 245 66
0.034092 0.113260 0.040347 66 245 66
0.034889 0.113190 0.039907 66 245 66
0.037697 0.112787 0.035653 66 245 66
0.038789 0.112668 0.034652 66 245 66
0.039527 0.112607 0.034325 66 245 66
0.040146 0.112566 0.034223 66 245 66
-0.048871 0.115611 -0.013939 66 245 66
-0.048488 0.115609 -0.013593 66 245 66
-0.048106 0.115607 -0.013247 66 245 66
-0.048019 0.115653 -0.012339 66 245 66
-0.047991 0.115709 -0.011320 66 245 66
-0.047845 0.115746 -0.010525 66 245 66
-0.047581 0.115763 -0.009955 66 245 66
-0.047317 0.115781 -0.009384 66 245 66
-0.046993 0.115788 -0.008926 66 245 66
-0.046611 0.115786 -0.008580 66 245 66
-0.046228 0.115784 -0.008233 66 245 66
-0.045846 0.115782 -0.007887 66 245 66
-0.045404 0.115770 -0.007653 66 245 66
-0.044962 0.115758 -0.007419 66 245 66
-0.044639 0.115766 -0.006961 66 245 66
-0.044315 0.115774 -0.006503 66 245 66
-0.043874 0.115762 -0.006269 66 245 66
-0.043491 0.115760 -0.005923 66 245 66
-0.043049 0.115748 -0.005689 66 245 66
-0.042548 0.115726 -0.005567 66 245 66
-0.042047 0.115705 -0.005445 66 245 66
-0.041665 0.115703 -0.005099 66 245 66
-0.041223 0.115691 -0.004865 66 245 66
-0.040781 0.115679 -0.004631 66 245 66
-0.040280 0.115658 -0.004510 66 245 66
-0.039779 0.115636 -0.004388 66 245 66
-0.039219 0.115605 -0.004378 66 245 66
-0.038659 0.115574 -0.004369 66 245 66
-0.038158 0.115552 -0.004247 66 245 66
-0.037717 0.115541 -0.004013 66 245 66
-0.037275 0.115529 -0.003779 66 245 66
-0.036952 0.115536 -0.003321 66 245 66
-0.036687 0.115554 -0.002750 66 245 66
-0.035788 0.115952 0.005190 66 245 66
-0.035819 0.116018 0.006321 66 245 66
-0.035733 0.116064 0.007228 66 245 66
-0.035587 0.116101 0.008023 66 245 66
-0.035382 0.116128 0.008706 66 245 66
-0.035176 0.116155 0.009389 66 245 66
-0.034853 0.116162 0.009847 66 245 66
-0.034589 0.116180 0.010418 66 245 66
-0.034679 0.116255 0.011662 66 245 66
-0.034474 0.116282 0.012344 66 245 66
-0.034328 0.116319 0.013139 66 245 66
-0.034064 0.116336 0.013710 66 245 66
-0.033800 0.116353 0.014280 66 245 66
-0.033536 0.116371 0.014851 66 245 66
-0.033271 0.116388 0.015421 66 245 66
-0.032948 0.116396 0.015880 66 245 66
-0.032624 0.116403 0.016338 66 245 66
-0.032360 0.116420 0.016909 66 245 66
-0.032037 0.116428 0.017367 66 245 66
-0.031713 0.116436 0.017825 66 245 66
-0.031390 0.116443 0.018284 66 245 66
-0.031007 0.116441 0.018630 66 245 66
-0.030684 0.116449 0.019088 66 245 66
-0.030301 0.116447 0.019434 66 245 66
-0.029919 0.116445 0.019780 66 245 66
-0.029595 0.116452 0.020239 66 245 66
-0.029213 0.116450 0.020585 66 245 66
-0.028771 0.116438 0.020819 66 245 66
-0.028388 0.116436 0.021165 66 245 66
-0.027947 0.116424 0.021399 66 245 66
-0.027505 0.116413 0.021633 66 245 66
-0.027063 0.116401 0.021867 66 245 66
-0.026621 0.116389 0.022101 66 245 66
-0.026120 0.116368 0.022222 66 245 66
-0.025619 0.116346 0.022344 66 245 66
-0.025178 0.116334 0.022578 66 245 66
-0.024559 0.116293 0.022475 66 245 66
-0.024058 0.116272 0.022597 66 245 66
-0.023616 0.116260 0.022831 66 245 66
-0.023115 0.116239 0.022953 66 245 66
-0.022496 0.116198 0.022850 66 245 66
-0.021995 0.116176 0.022972 66 245 66
-0.021435 0.116145 0.022981 66 245 66
-0.020875 0.116114 0.022991 66 245 66
-0.020137 0.116054 0.022664 66 245 66
-0.019518 0.116013 0.022561 66 245 66
-0.019135 0.116011 0.022907 66 245 66
-0.018812 0.116018 0.023365 66 245 66
-0.018488 0.116026 0.023824 66 245 66
-0.018047 0.116014 0.024058 66 245 66
-0.017605 0.116002 0.024291 66 245 66
-0.017222 0.116000 0.024638 66 245 66
-0.016899 0.116008 0.025096 66 245 66
-0.016635 0.116025 0.025666 66 245 66
-0.016252 0.116023 0.026013 66 245 66
-0.016165 0.116069 0.026920 66 245 66
-0.015960 0.116096 0.027603 66 245 66
-0.015637 0.116104 0.028061 66 245 66
-0.015313 0.116112 0.028519 66 245 66
-0.014931 0.116110 0.028865 66 245 66
-0.014548 0.116107 0.029212 66 245 66
-0.014166 0.116105 0.029558 66 245 66
-0.013783 0.116103 0.029904 66 245 66
-0.013400 0.116101 0.030250 66 245 66
-0.013018 0.116099 0.030596 66 245 66
-0.012576 0.116087 0.030830 66 245 66
-0.012134 0.116076 0.031064 66 245 66
-0.011693 0.116064 0.031298 66 245 66
-0.011251 0.116052 0.031532 66 245 66
-0.010809 0.116040 0.031766 66 245 66
-0.010308 0.116019 0.031887 66 245 66
-0.009866 0.116007 0.032121 66 245 66
-0.009365 0.115985 0.032243 66 245 66
-0.008865 0.115964 0.032365 66 245 66
-0.008423 0.115952 0.032599 66 245 66
-0.007922 0.115931 0.032720 66 245 66
-0.007421 0.115909 0.032842 66 245 66
-0.006920 0.115888 0.032964 66 245 66
-0.006419 0.115866 0.033085 66 245 66
-0.005918 0.115845 0.033207 66 245 66
-0.005417 0.115823 0.033329 66 245 66
-0.004857 0.115792 0.033338 66 245 66
-0.004297 0.115761 0.033348 66 245 66
-0.003678 0.115720 0.033245 66 245 66
-0.003177 0.115698 0.033367 66 245 66
-0.002499 0.115648 0.033152 66 245 66
-0.001879 0.115607 0.033049 66 245 66
-0.001260 0.115566 0.032947 66 245 66
-0.000641 0.115525 0.032844 66 245 66
-0.000022 0.115484 0.032741 66 245 66
0.000538 0.115453 0.032751 66 245 66
0.001157 0.115412 0.032648 66 245 66
0.001658 0.115391 0.032770 66 245 66
0.002218 0.115360 0.032779 66 245 66
0.002779 0.115329 0.032789 66 245 66
0.003398 0.115288 0.032686 66 245 66
0.004076 0.115237 0.032471 66 245 66
0.004755 0.115186 0.032256 66 245 66
0.005374 0.115146 0.032153 66 245 66
0.006111 0.115085 0.031826 66 245 66
0.006731 0.115044 0.031724 66 245 66
0.007646 0.114955 0.031060 66 245 66
0.008442 0.114885 0.030621 66 245 66
0.009416 0.114786 0.029845 66 245 66
0.010509 0.114668 0.028844 66 245 66
0.010892 0.114666 0.029190 66 245 66
0.011274 0.114663 0.029537 66 245 66
0.011775 0.114642 0.029658 66 245 66
0.012335 0.114611 0.029668 66 245 66
0.012777 0.114599 0.029902 66 245 66
0.013159 0.114597 0.030248 66 245 66
0.013720 0.114566 0.030257 66 245 66
0.014220 0.114544 0.030379 66 245 66
0.014662 0.114532 0.030613 66 245 66
0.014986 0.114540 0.031071 66 245 66
0.015368 0.114538 0.031417 66 245 66
0.015692 0.114546 0.031876 66 245 66
0.016015 0.114553 0.032334 66 245 66
0.016279 0.114571 0.032905 66 245 66
0.016603 0.114578 0.033363 66 245 66
0.017044 0.114566 0.033597 66 245 66
0.017368 0.114574 0.034055 66 245 66
0.017691 0.114582 0.034514 66 245 66
0.018133 0.114570 0.034748 66 245 66
0.018397 0.114587 0.035318 66 245 66
0.018721 0.114595 0.035776 66 245 66
0.019163 0.114583 0.036010 66 245 66
0.019604 0.114571 0.036244 66 245 66
0.020046 0.114559 0.036478 66 245 66
0.020488 0.114547 0.036712 66 245 66
0.020811 0.114555 0.037170 66 245 66
0.021135 0.114563 0.037629 66 245 66
0.021636 0.114541 0.037750 66 245 66
0.022077 0.114529 0.037984 66 245 66
0.022460 0.114527 0.038331 66 245 66
0.022842 0.114525 0.038677 66 245 66
0.023284 0.114513 0.038911 66 245 66
0.023726 0.114502 0.039145 66 245 66
0.024168 0.114490 0.039378 66 245 66
0.024550 0.114488 0.039725 66 245 66
0.024992 0.114476 0.039958 66 245 66
0.025375 0.114474 0.040305 66 245 66
0.025816 0.114462 0.040539 66 245 66
0.026258 0.114450 0.040772 66 245 66
0.026818 0.114419 0.040782 66 245 66
0.027378 0.114388 0.040791 66 245 66
0.027879 0.114366 0.040913 66 245 66
0.028498 0.114326 0.040810 66 245 66
0.029058 0.114294 0.040820 66 245 66
0.029678 0.114254 0.040717 66 245 66
0.030238 0.114222 0.040727 66 245 66
0.031094 0.114143 0.040175 66 245 66
0.031772 0.114092 0.039960 66 245 66
0.032391 0.114051 0.039858 66 245 66
0.033188 0.113981 0.039418 66 245 66
0.034458 0.113834 0.038081 66 245 66
0.035255 0.113764 0.037642 66 245 66
0.036229 0.113665 0.036866 66 245 66
0.037085 0.113585 0.036315 66 245 66
0.037822 0.113525 0.035987 66 245 66
0.039151 0.113368 0.034538 66 245 66
0.039711 0.113336 0.034548 66 245 66
-0.048067 0.116301 -0.013819 66 245 66
-0.047980 0.116347 -0.012912 66 245 66
-0.047598 0.116344 -0.012566 66 245 66
-0.047393 0.116371 -0.011883 66 245 66
-0.047306 0.116417 -0.010976 66 245 66
-0.047041 0.116434 -0.010405 66 245 66
-0.046718 0.116441 -0.009947 66 245 66
-0.046395 0.116449 -0.009489 66 245 66
-0.045953 0.116437 -0.009255 66 245 66
-0.045689 0.116454 -0.008684 66 245 66
-0.045306 0.116452 -0.008338 66 245 66
-0.044923 0.116450 -0.007992 66 245 66
-0.044659 0.116467 -0.007422 66 245 66
-0.044277 0.116465 -0.007075 66 245 66
-0.043776 0.116443 -0.006954 66 245 66
-0.043275 0.116422 -0.006832 66 245 66
-0.042774 0.116400 -0.006710 66 245 66
-0.042332 0.116389 -0.006476 66 245 66
-0.041949 0.116387 -0.006130 66 245 66
-0.041567 0.116384 -0.005784 66 245 66
-0.041184 0.116382 -0.005438 66 245 66
-0.040743 0.116370 -0.005204 66 245 66
-0.040242 0.116349 -0.005082 66 245 66
-0.039800 0.116337 -0.004848 66 245 66
-0.039240 0.116306 -0.004839 66 245 66
-0.038621 0.116266 -0.004942 66 245 66
-0.038179 0.116254 -0.004708 66 245 66
-0.037737 0.116242 -0.004474 66 245 66
-0.037355 0.116240 -0.004128 66 245 66
-0.036972 0.116238 -0.003782 66 245 66
-0.036708 0.116255 -0.003211 66 245 66
-0.035840 0.116714 0.005861 66 245 66
-0.035694 0.116750 0.006655 66 245 66
-0.035548 0.116786 0.007450 66 245 66
-0.035343 0.116813 0.008133 66 245 66
-0.035138 0.116840 0.008816 66 245 66
-0.034933 0.116866 0.009499 66 245 66
-0.034846 0.116912 0.010406 66 245 66
-0.034759 0.116958 0.011313 66 245 66
-0.034613 0.116994 0.012108 66 245 66
-0.034349 0.117012 0.012678 66 245 66
-0.034144 0.117038 0.013361 66 245 66
-0.033879 0.117055 0.013932 66 245 66
-0.033556 0.117063 0.014390 66 245 66
-0.033351 0.117089 0.015073 66 245 66
-0.033087 0.117106 0.015643 66 245 66
-0.032763 0.117114 0.016102 66 245 66
-0.032499 0.117131 0.016672 66 245 66
-0.032175 0.117138 0.017130 66 245 66
-0.031852 0.117146 0.017589 66 245 66
-0.031529 0.117153 0.018047 66 245 66
-0.031205 0.117161 0.018505 66 245 66
-0.030882 0.117168 0.018964 66 245 66
-0.030499 0.117166 0.019310 66 245 66
-0.030117 0.117164 0.019656 66 245 66
-0.029734 0.117162 0.020002 66 245 66
-0.029351 0.117159 0.020348 66 245 66
-0.028969 0.117157 0.020694 66 245 66
-0.028586 0.117155 0.021041 66 245 66
-0.028144 0.117143 0.021274 66 245 66
-0.027703 0.117132 0.021508 66 245 66
-0.027261 0.117120 0.021742 66 245 66
-0.026819 0.117108 0.021976 66 245 66
-0.026318 0.117087 0.022098 66 245 66
-0.025817 0.117065 0.022220 66 245 66
-0.025376 0.117053 0.022454 66 245 66
-0.024816 0.117022 0.022463 66 245 66
-0.024315 0.117001 0.022585 66 245 66
-0.023814 0.116980 0.022707 66 245 66
-0.023313 0.116958 0.022828 66 245 66
-0.022753 0.116927 0.022838 66 245 66
-0.022252 0.116906 0.022960 66 245 66
-0.021751 0.116884 0.023081 66 245 66
-0.021132 0.116844 0.022979 66 245 66
-0.020572 0.116813 0.022988 66 245 66
-0.019775 0.116743 0.022549 66 245 66
-0.019392 0.116741 0.022895 66 245 66
-0.019069 0.116748 0.023353 66 245 66
-0.018746 0.116756 0.023812 66 245 66
-0.018363 0.116754 0.024158 66 245 66
-0.017921 0.116742 0.024392 66 245 66
-0.017479 0.116730 0.024625 66 245 66
-0.017097 0.116728 0.024972 66 245 66
-0.016773 0.116735 0.025430 66 245 66
-0.016391 0.116733 0.025776 66 245 66
-0.016186 0.116760 0.026459 66 245 66
-0.016040 0.116796 0.027254 66 245 66
-0.015835 0.116823 0.027937 66 245 66
-0.015511 0.116830 0.028395 66 245 66
-0.015129 0.116828 0.028741 66 245 66
-0.014805 0.116836 0.029199 66 245 66
-0.014363 0.116824 0.029433 66 245 66
-0.013981 0.116822 0.029779 66 245 66
-0.013598 0.116819 0.030125 66 245 66
-0.013216 0.116817 0.030472 66 245 66
-0.012774 0.116805 0.030706 66 245 66
-0.012332 0.116794 0.030939 66 245 66
-0.011950 0.116792 0.031286 66 245 66
-0.011508 0.116780 0.031519 66 245 66
-0.011007 0.116758 0.031641 66 245 66
-0.010624 0.116756 0.031987 66 245 66
-0.010123 0.116735 0.032109 66 245 66
-0.009623 0.116713 0.032231 66 245 66
-0.009181 0.116702 0.032465 66 245 66
-0.008680 0.116680 0.032586 66 245 66
-0.008179 0.116659 0.032708 66 245 66
-0.007796 0.116657 0.033054 66 245 66
-0.007177 0.116616 0.032952 66 245 66
-0.006735 0.116604 0.033185 66 245 66
-0.006235 0.116583 0.033307 66 245 66
-0.005734 0.116561 0.033429 66 245 66
-0.005114 0.116521 0.033326 66 245 66
-0.004495 0.116480 0.033224 66 245 66
-0.003994 0.116459 0.033345 66 245 66
-0.003434 0.116428 0.033355 66 245 66
-0.002874 0.116397 0.033364 66 245 66
-0.002196 0.116346 0.033149 66 245 66
-0.001636 0.116315 0.033159 66 245 66
-0.001016 0.116275 0.033056 66 245 66
-0.000338 0.116224 0.032841 66 245 66
0.000222 0.116193 0.032851 66 245 66
0.000960 0.116134 0.032524 66 245 66
0.001460 0.116112 0.032645 66 245 66
0.002080 0.116072 0.032543 66 245 66
0.002581 0.116050 0.032664 66 245 66
0.003141 0.116019 0.032674 66 245 66
0.003760 0.115978 0.032571 66 245 66
0.004497 0.115919 0.032244 66 245 66
0.005117 0.115878 0.032141 66 245 66
0.005795 0.115828 0.031927 66 245 66
0.006355 0.115797 0.031936 66 245 66
0.007152 0.115727 0.031497 66 245 66
0.007949 0.115658 0.031058 66 245 66
0.008923 0.115559 0.030282 66 245 66
0.009956 0.115451 0.029393 66 245 66
0.010753 0.115382 0.028954 66 245 66
0.011195 0.115370 0.029188 66 245 66
0.011695 0.115349 0.029310 66 245 66
0.012078 0.115347 0.029656 66 245 66
0.012697 0.115306 0.029553 66 245 66
0.013139 0.115294 0.029787 66 245 66
0.013699 0.115263 0.029797 66 245 66
0.014200 0.115242 0.029918 66 245 66
0.014583 0.115240 0.030265 66 245 66
0.014965 0.115237 0.030611 66 245 66
0.015348 0.115235 0.030957 66 245 66
0.015671 0.115243 0.031415 66 245 66
0.015995 0.115250 0.031873 66 245 66
0.016318 0.115258 0.032332 66 245 66
0.016582 0.115275 0.032902 66 245 66
0.016965 0.115272 0.033248 66 245 66
0.017347 0.115270 0.033595 66 245 66
0.017730 0.115268 0.033941 66 245 66
0.018113 0.115266 0.034287 66 245 66
0.018436 0.115273 0.034745 66 245 66
0.018819 0.115271 0.035091 66 245 66
0.019201 0.115269 0.035437 66 245 66
0.019702 0.115248 0.035559 66 245 66
0.020085 0.115245 0.035905 66 245 66
0.020527 0.115234 0.036139 66 245 66
0.020968 0.115222 0.036373 66 245 66
0.021292 0.115229 0.036831 66 245 66
0.021733 0.115218 0.037065 66 245 66
0.021998 0.115235 0.037636 66 245 66
0.022380 0.115232 0.037982 66 245 66
0.022763 0.115230 0.038328 66 245 66
0.023145 0.115228 0.038674 66 245 66
0.023646 0.115207 0.038796 66 245 66
0.024147 0.115185 0.038918 66 245 66
0.024767 0.115145 0.038815 66 245 66
0.025149 0.115142 0.039161 66 245 66
0.025473 0.115150 0.039619 66 245 66
0.025855 0.115148 0.039966 66 245 66
0.026297 0.115136 0.040199 66 245 66
0.026857 0.115105 0.040209 66 245 66
0.027476 0.115064 0.040106 66 245 66
0.027977 0.115043 0.040228 66 245 66
0.028478 0.115021 0.040350 66 245 66
0.028920 0.115010 0.040584 66 245 66
0.029421 0.114988 0.040705 66 245 66
0.030040 0.114948 0.040603 66 245 66
0.030777 0.114888 0.040276 66 245 66
0.031456 0.114838 0.040061 66 245 66
0.032193 0.114778 0.039734 66 245 66
0.033049 0.114699 0.039182 66 245 66
0.033787 0.114639 0.038855 66 245 66
0.034702 0.114550 0.038191 66 245 66
0.035913 0.114413 0.036967 66 245 66
0.036532 0.114373 0.036864 66 245 66
0.037388 0.114293 0.036312 66 245 66
0.039013 0.114089 0.034302 66 245 66
0.039454 0.114078 0.034536 66 245 66
-0.047764 0.117012 -0.013821 66 245 66
-0.047559 0.117038 -0.013138 66 245 66
-0.047295 0.117055 -0.012568 66 245 66
-0.046853 0.117043 -0.012334 66 245 66
-0.046529 0.117050 -0.011876 66 245 66
-0.046029 0.117029 -0.011754 66 245 66
-0.045764 0.117046 -0.011183 66 245 66
-0.045737 0.117101 -0.010164 66 245 66
-0.045354 0.117099 -0.009818 66 245 66
-0.045149 0.117125 -0.009135 66 245 66
-0.044826 0.117132 -0.008677 66 245 66
-0.044502 0.117140 -0.008219 66 245 66
-0.044238 0.117156 -0.007648 66 245 66
-0.043737 0.117135 -0.007526 66 245 66
-0.043236 0.117114 -0.007405 66 245 66
-0.042735 0.117092 -0.007283 66 245 66
-0.042234 0.117071 -0.007161 66 245 66
-0.041852 0.117069 -0.006815 66 245 66
-0.041351 0.117048 -0.006693 66 245 66
-0.041027 0.117055 -0.006235 66 245 66
-0.040645 0.117053 -0.005889 66 245 66
-0.040144 0.117031 -0.005767 66 245 66
-0.039761 0.117029 -0.005421 66 245 66
-0.039201 0.116998 -0.005412 66 245 66
-0.038523 0.116948 -0.005626 66 245 66
-0.038140 0.116946 -0.005280 66 245 66
-0.037758 0.116944 -0.004934 66 245 66
-0.037375 0.116941 -0.004588 66 245 66
-0.036933 0.116930 -0.004354 66 245 66
-0.036669 0.116946 -0.003784 66 245 66
-0.036346 0.116954 -0.003325 66 245 66
-0.035651 0.117317 0.003932 66 245 66
-0.035801 0.117401 0.005288 66 245 66
-0.035655 0.117437 0.006083 66 245 66
-0.035509 0.117473 0.006877 66 245 66
-0.035304 0.117499 0.007560 66 245 66
-0.034953 0.117561 0.009038 66 245 66
-0.034866 0.117607 0.009945 66 245 66
-0.034839 0.117662 0.010964 66 245 66
-0.034633 0.117688 0.011647 66 245 66
-0.034369 0.117705 0.012218 66 245 66
-0.034105 0.117722 0.012788 66 245 66
-0.033841 0.117738 0.013359 66 245 66
-0.033576 0.117755 0.013929 66 245 66
-0.033312 0.117772 0.014500 66 245 66
-0.033107 0.117798 0.015182 66 245 66
-0.032843 0.117815 0.015753 66 245 66
-0.032578 0.117832 0.016323 66 245 66
-0.032314 0.117849 0.016894 66 245 66
-0.031991 0.117856 0.017352 66 245 66
-0.031608 0.117854 0.017698 66 245 66
-0.031285 0.117861 0.018157 66 245 66
-0.030961 0.117868 0.018615 66 245 66
-0.030638 0.117876 0.019073 66 245 66
-0.030255 0.117874 0.019419 66 245 66
-0.029873 0.117871 0.019766 66 245 66
-0.029549 0.117879 0.020224 66 245 66
-0.029167 0.117876 0.020570 66 245 66
-0.028725 0.117864 0.020804 66 245 66
-0.028342 0.117862 0.021150 66 245 66
-0.027901 0.117850 0.021384 66 245 66
-0.027459 0.117839 0.021618 66 245 66
-0.026958 0.117817 0.021740 66 245 66
-0.026516 0.117806 0.021974 66 245 66
-0.026015 0.117784 0.022095 66 245 66
-0.025514 0.117763 0.022217 66 245 66
-0.025013 0.117742 0.022339 66 245 66
-0.024513 0.117720 0.022460 66 245 66
-0.024071 0.117708 0.022694 66 245 66
-0.023511 0.117678 0.022704 66 245 66
-0.023010 0.117656 0.022826 66 245 66
-0.022509 0.117635 0.022947 66 245 66
-0.022008 0.117614 0.023069 66 245 66
-0.021389 0.117573 0.022966 66 245 66
-0.020710 0.117523 0.022752 66 245 66
-0.020091 0.117483 0.022649 66 245 66
-0.019709 0.117481 0.022995 66 245 66
-0.019385 0.117488 0.023453 66 245 66
-0.019003 0.117486 0.023799 66 245 66
-0.018620 0.117483 0.024146 66 245 66
-0.018178 0.117472 0.024379 66 245 66
-0.017796 0.117469 0.024726 66 245 66
-0.017354 0.117458 0.024959 66 245 66
-0.016912 0.117446 0.025193 66 245 66
-0.016589 0.117453 0.025652 66 245 66
-0.016265 0.117460 0.026110 66 245 66
-0.016060 0.117487 0.026793 66 245 66
-0.015855 0.117513 0.027476 66 245 66
-0.015591 0.117530 0.028046 66 245 66
-0.015267 0.117537 0.028504 66 245 66
-0.014944 0.117544 0.028963 66 245 66
-0.014561 0.117542 0.029309 66 245 66
-0.014179 0.117540 0.029655 66 245 66
-0.013796 0.117538 0.030001 66 245 66
-0.013414 0.117535 0.030347 66 245 66
-0.012972 0.117524 0.030581 66 245 66
-0.012530 0.117512 0.030815 66 245 66
-0.012148 0.117510 0.031161 66 245 66
-0.011765 0.117507 0.031507 66 245 66
-0.011264 0.117486 0.031629 66 245 66
-0.010822 0.117474 0.031863 66 245 66
-0.010381 0.117462 0.032097 66 245 66
-0.009880 0.117441 0.032219 66 245 66
-0.009438 0.117429 0.032452 66 245 66
-0.008996 0.117418 0.032686 66 245 66
-0.008436 0.117387 0.032696 66 245 66
-0.007994 0.117375 0.032930 66 245 66
-0.007493 0.117354 0.033052 66 245 66
-0.006993 0.117332 0.033173 66 245 66
-0.006492 0.117311 0.033295 66 245 66
-0.005991 0.117290 0.033417 66 245 66
-0.005431 0.117259 0.033426 66 245 66
-0.004871 0.117228 0.033436 66 245 66
-0.004251 0.117188 0.033333 66 245 66
-0.003691 0.117157 0.033343 66 245 66
-0.003131 0.117126 0.033352 66 245 66
-0.002512 0.117085 0.033249 66 245 66
-0.001952 0.117055 0.033259 66 245 66
-0.001274 0.117005 0.033044 66 245 66
-0.000713 0.116974 0.033054 66 245 66
-0.000094 0.116933 0.032951 66 245 66
0.000525 0.116893 0.032848 66 245 66
0.001203 0.116843 0.032633 66 245 66
0.001882 0.116793 0.032418 66 245 66
0.002442 0.116762 0.032428 66 245 66
0.003002 0.116731 0.032438 66 245 66
0.003621 0.116691 0.032335 66 245 66
0.004181 0.116660 0.032344 66 245 66
0.004919 0.116601 0.032017 66 245 66
0.005479 0.116570 0.032027 66 245 66
0.006157 0.116520 0.031812 66 245 66
0.006776 0.116479 0.031709 66 245 66
0.007514 0.116420 0.031382 66 245 66
0.008429 0.116332 0.030718 66 245 66
0.009344 0.116244 0.030055 66 245 66
0.010555 0.116108 0.028830 66 245 66
0.011233 0.116058 0.028615 66 245 66
0.011616 0.116056 0.028961 66 245 66
0.012058 0.116044 0.029195 66 245 66
0.012559 0.116023 0.029317 66 245 66
0.013059 0.116001 0.029439 66 245 66
0.013619 0.115971 0.029448 66 245 66
0.014120 0.115949 0.029570 66 245 66
0.014562 0.115937 0.029804 66 245 66
0.014945 0.115935 0.030150 66 245 66
0.015327 0.115933 0.030496 66 245 66
0.015592 0.115950 0.031067 66 245 66
0.015974 0.115947 0.031413 66 245 66
0.016357 0.115945 0.031759 66 245 66
0.016739 0.115943 0.032105 66 245 66
0.017004 0.115960 0.032676 66 245 66
0.017445 0.115948 0.032909 66 245 66
0.017828 0.115946 0.033256 66 245 66
0.018211 0.115944 0.033602 66 245 66
0.018711 0.115922 0.033723 66 245 66
0.019035 0.115929 0.034182 66 245 66
0.019358 0.115937 0.034640 66 245 66
0.019741 0.115935 0.034986 66 245 66
0.020064 0.115942 0.035445 66 245 66
0.020447 0.115940 0.035791 66 245 66
0.020889 0.115928 0.036025 66 245 66
0.021271 0.115925 0.036371 66 245 66
0.021713 0.115914 0.036605 66 245 66
0.022036 0.115921 0.037063 66 245 66
0.022301 0.115938 0.037633 66 245 66
0.022742 0.115926 0.037867 66 245 66
0.023184 0.115914 0.038101 66 245 66
0.023626 0.115902 0.038335 66 245 66
0.024186 0.115872 0.038345 66 245 66
0.024746 0.115841 0.038354 66 245 66
0.025306 0.115810 0.038364 66 245 66
0.025689 0.115808 0.038710 66 245 66
0.026071 0.115805 0.039056 66 245 66
0.026454 0.115803 0.039402 66 245 66
0.027073 0.115763 0.039300 66 245 66
0.027515 0.115751 0.039533 66 245 66
0.028016 0.115730 0.039655 66 245 66
0.028458 0.115718 0.039889 66 245 66
0.028840 0.115716 0.040235 66 245 66
0.029341 0.115694 0.040357 66 245 66
0.029901 0.115663 0.040366 66 245 66
0.030520 0.115623 0.040264 66 245 66
0.031140 0.115583 0.040161 66 245 66
0.031877 0.115523 0.039834 66 245 66
0.032792 0.115435 0.039170 66 245 66
0.033411 0.115395 0.039068 66 245 66
0.034326 0.115307 0.038404 66 245 66
0.035123 0.115238 0.037965 66 245 66
0.036393 0.115092 0.036628 66 245 66
0.036835 0.115080 0.036862 66 245 66
0.037868 0.114973 0.035974 66 245 66
0.038487 0.114933 0.035871 66 245 66
-0.046960 0.117702 -0.013701 66 245 66
-0.046696 0.117718 -0.013131 66 245 66
-0.046432 0.117735 -0.012560 66 245 66
-0.045990 0.117723 -0.012327 66 245 66
-0.045548 0.117711 -0.012093 66 245 66
-0.045284 0.117728 -0.011522 66 245 66
-0.045079 0.117754 -0.010839 66 245 66
-0.044933 0.117790 -0.010044 66 245 66
-0.044728 0.117816 -0.009362 66 245 66
-0.044345 0.117813 -0.009016 66 245 66
-0.043962 0.117811 -0.008670 66 245 66
-0.043580 0.117809 -0.008323 66 245 66
-0.043020 0.117778 -0.008314 66 245 66
-0.042578 0.117766 -0.008080 66 245 66
-0.042195 0.117764 -0.007734 66 245 66
-0.041872 0.117771 -0.007276 66 245 66
-0.041371 0.117750 -0.007154 66 245 66
-0.040929 0.117738 -0.006920 66 245 66
-0.040488 0.117726 -0.006686 66 245 66
-0.039928 0.117695 -0.006676 66 245 66
-0.039545 0.117693 -0.006330 66 245 66
-0.038867 0.117643 -0.006545 66 245 66
-0.038425 0.117632 -0.006311 66 245 66
-0.038101 0.117639 -0.005853 66 245 66
-0.037660 0.117627 -0.005619 66 245 66
-0.037159 0.117606 -0.005497 66 245 66
-0.036776 0.117603 -0.005151 66 245 66
-0.036512 0.117620 -0.004581 66 245 66
-0.036070 0.117608 -0.004347 66 245 66
-0.035672 0.118015 0.003471 66 245 66
-0.035703 0.118079 0.004603 66 245 66
-0.035616 0.118124 0.005510 66 245 66
-0.035470 0.118159 0.006305 66 245 66
-0.035147 0.118167 0.006763 66 245 66
-0.034914 0.118247 0.008465 66 245 66
-0.034946 0.118311 0.009596 66 245 66
-0.034800 0.118346 0.010391 66 245 66
-0.034595 0.118372 0.011074 66 245 66
-0.034330 0.118389 0.011645 66 245 66
-0.034066 0.118406 0.012215 66 245 66
-0.033802 0.118422 0.012786 66 245 66
-0.033597 0.118448 0.013468 66 245 66
-0.033333 0.118465 0.014039 66 245 66
-0.033068 0.118481 0.014609 66 245 66
-0.032922 0.118517 0.015404 66 245 66
-0.032717 0.118543 0.016087 66 245 66
-0.032453 0.118560 0.016657 66 245 66
-0.032070 0.118557 0.017004 66 245 66
-0.031747 0.118564 0.017462 66 245 66
-0.031424 0.118571 0.017920 66 245 66
-0.031100 0.118579 0.018378 66 245 66
-0.030777 0.118586 0.018837 66 245 66
-0.030394 0.118583 0.019183 66 245 66
-0.030011 0.118581 0.019529 66 245 66
-0.029629 0.118579 0.019875 66 245 66
-0.029305 0.118586 0.020333 66 245 66
-0.028864 0.118574 0.020567 66 245 66
-0.028481 0.118572 0.020914 66 245 66
-0.028099 0.118569 0.021260 66 245 66
-0.027657 0.118558 0.021494 66 245 66
-0.027215 0.118546 0.021727 66 245 66
-0.026773 0.118534 0.021961 66 245 66
-0.026213 0.118503 0.021971 66 245 66
-0.025712 0.118482 0.022093 66 245 66
-0.025211 0.118461 0.022214 66 245 66
-0.024651 0.118430 0.022224 66 245 66
-0.024210 0.118418 0.022458 66 245 66
-0.023709 0.118397 0.022580 66 245 66
-0.023149 0.118366 0.022589 66 245 66
-0.022648 0.118345 0.022711 66 245 66
-0.022088 0.118314 0.022720 66 245 66
-0.021528 0.118284 0.022730 66 245 66
-0.020790 0.118225 0.022403 66 245 66
-0.020289 0.118203 0.022525 66 245 66
-0.019907 0.118201 0.022871 66 245 66
-0.019642 0.118218 0.023441 66 245 66
-0.019319 0.118225 0.023899 66 245 66
-0.018877 0.118213 0.024133 66 245 66
-0.018494 0.118211 0.024480 66 245 66
-0.018112 0.118208 0.024826 66 245 66
-0.017670 0.118197 0.025060 66 245 66
-0.017169 0.118175 0.025181 66 245 66
-0.016668 0.118154 0.025303 66 245 66
-0.016286 0.118152 0.025649 66 245 66
-0.015962 0.118159 0.026107 66 245 66
-0.015816 0.118194 0.026902 66 245 66
-0.015552 0.118211 0.027473 66 245 66
-0.015347 0.118237 0.028156 66 245 66
-0.015024 0.118244 0.028614 66 245 66
-0.014700 0.118251 0.029072 66 245 66
-0.014318 0.118249 0.029418 66 245 66
-0.013935 0.118247 0.029764 66 245 66
-0.013552 0.118244 0.030111 66 245 66
-0.013170 0.118242 0.030457 66 245 66
-0.012728 0.118230 0.030691 66 245 66
-0.012345 0.118228 0.031037 66 245 66
-0.011963 0.118225 0.031383 66 245 66
-0.011521 0.118214 0.031617 66 245 66
-0.011079 0.118202 0.031851 66 245 66
-0.010638 0.118190 0.032085 66 245 66
-0.010196 0.118178 0.032319 66 245 66
-0.009695 0.118157 0.032440 66 245 66
-0.009194 0.118136 0.032562 66 245 66
-0.008693 0.118115 0.032684 66 245 66
-0.008251 0.118103 0.032918 66 245 66
-0.007750 0.118081 0.033039 66 245 66
-0.007250 0.118060 0.033161 66 245 66
-0.006749 0.118039 0.033283 66 245 66
-0.006248 0.118018 0.033405 66 245 66
-0.005747 0.117997 0.033526 66 245 66
-0.005187 0.117966 0.033536 66 245 66
-0.004568 0.117926 0.033433 66 245 66
-0.003948 0.117885 0.033330 66 245 66
-0.003388 0.117855 0.033340 66 245 66
-0.002828 0.117824 0.033349 66 245 66
-0.002209 0.117784 0.033247 66 245 66
-0.001590 0.117744 0.033144 66 245 66
-0.000971 0.117704 0.033041 66 245 66
-0.000410 0.117673 0.033051 66 245 66
0.000209 0.117633 0.032948 66 245 66
0.000769 0.117602 0.032958 66 245 66
0.001566 0.117534 0.032519 66 245 66
0.002185 0.117493 0.032416 66 245 66
0.002922 0.117434 0.032089 66 245 66
0.003423 0.117413 0.032211 66 245 66
0.004042 0.117373 0.032108 66 245 66
0.004543 0.117352 0.032230 66 245 66
0.005222 0.117302 0.032015 66 245 66
0.005841 0.117262 0.031912 66 245 66
0.006519 0.117212 0.031697 66 245 66
0.007198 0.117163 0.031482 66 245 66
0.008113 0.117075 0.030819 66 245 66
0.008969 0.116997 0.030267 66 245 66
0.009647 0.116948 0.030052 66 245 66
0.010858 0.116813 0.028828 66 245 66
0.011655 0.116744 0.028389 66 245 66
0.012037 0.116742 0.028735 66 245 66
0.012479 0.116730 0.028969 66 245 66
0.012980 0.116709 0.029090 66 245 66
0.013540 0.116678 0.029100 66 245 66
0.014041 0.116657 0.029222 66 245 66
0.014483 0.116645 0.029455 66 245 66
0.014924 0.116633 0.029689 66 245 66
0.015366 0.116622 0.029923 66 245 66
0.015689 0.116629 0.030382 66 245 66
0.016072 0.116626 0.030728 66 245 66
0.016396 0.116634 0.031186 66 245 66
0.016837 0.116622 0.031420 66 245 66
0.017220 0.116619 0.031766 66 245 66
0.017484 0.116636 0.032337 66 245 66
0.017867 0.116634 0.032683 66 245 66
0.018249 0.116631 0.033029 66 245 66
0.018632 0.116629 0.033375 66 245 66
0.019014 0.116627 0.033721 66 245 66
0.019397 0.116624 0.034067 66 245 66
0.019720 0.116631 0.034526 66 245 66
0.019985 0.116648 0.035096 66 245 66
0.020367 0.116646 0.035442 66 245 66
0.020750 0.116643 0.035788 66 245 66
0.021251 0.116622 0.035910 66 245 66
0.021693 0.116610 0.036144 66 245 66
0.022134 0.116599 0.036378 66 245 66
0.022458 0.116606 0.036836 66 245 66
0.022840 0.116603 0.037182 66 245 66
0.023282 0.116592 0.037416 66 245 66
0.023665 0.116589 0.037762 66 245 66
0.024166 0.116568 0.037884 66 245 66
0.024726 0.116537 0.037894 66 245 66
0.025404 0.116488 0.037679 66 245 66
0.025964 0.116457 0.037688 66 245 66
0.026406 0.116445 0.037922 66 245 66
0.026788 0.116443 0.038268 66 245 66
0.027230 0.116431 0.038502 66 245 66
0.027494 0.116448 0.039073 66 245 66
0.027936 0.116436 0.039307 66 245 66
0.028496 0.116405 0.039316 66 245 66
0.029056 0.116374 0.039326 66 245 66
0.029439 0.116372 0.039672 66 245 66
0.029881 0.116360 0.039906 66 245 66
0.030441 0.116330 0.039915 66 245 66
0.030942 0.116308 0.040037 66 245 66
0.031679 0.116249 0.039710 66 245 66
0.032594 0.116162 0.039046 66 245 66
0.033213 0.116122 0.038944 66 245 66
0.033833 0.116082 0.038841 66 245 66
0.034748 0.115994 0.038177 66 245 66
0.036077 0.115840 0.036728 66 245 66
0.036696 0.115800 0.036626 66 245 66
0.037434 0.115741 0.036299 66 245 66
0.038171 0.115682 0.035971 66 245 66
-0.046302 0.118357 -0.014377 66 245 66
-0.045979 0.118364 -0.013918 66 245 66
-0.045714 0.118381 -0.013348 66 245 66
-0.045450 0.118397 -0.012777 66 245 66
-0.045127 0.118404 -0.012319 66 245 66
-0.044862 0.118420 -0.011748 66 245 66
-0.044539 0.118427 -0.011290 66 245 66
-0.044334 0.118453 -0.010607 66 245 66
-0.044010 0.118460 -0.010149 66 245 66
-0.043805 0.118486 -0.009466 66 245 66
-0.043423 0.118483 -0.009120 66 245 66
-0.042685 0.118424 -0.009447 66 245 66
-0.042362 0.118431 -0.008989 66 245 66
-0.042038 0.118438 -0.008531 66 245 66
-0.041774 0.118455 -0.007960 66 245 66
-0.041332 0.118443 -0.007726 66 245 66
-0.040831 0.118422 -0.007605 66 245 66
-0.040390 0.118410 -0.007371 66 245 66
-0.039948 0.118398 -0.007137 66 245 66
-0.039565 0.118396 -0.006791 66 245 66
-0.038828 0.118337 -0.007118 66 245 66
-0.038386 0.118325 -0.006884 66 245 66
-0.037885 0.118304 -0.006762 66 245 66
-0.037325 0.118274 -0.006753 66 245 66
-0.036943 0.118271 -0.006406 66 245 66
-0.036560 0.118269 -0.006060 66 245 66
-0.036355 0.118295 -0.005378 66 245 66
-0.035664 0.118767 0.004030 66 245 66
-0.035518 0.118803 0.004825 66 245 66
-0.035373 0.118838 0.005620 66 245 66
-0.034876 0.118934 0.007892 66 245 66
-0.034907 0.118997 0.009023 66 245 66
-0.034761 0.119032 0.009818 66 245 66
-0.034556 0.119058 0.010501 66 245 66
-0.034292 0.119074 0.011072 66 245 66
-0.033968 0.119081 0.011530 66 245 66
-0.033763 0.119107 0.012213 66 245 66
-0.033381 0.119104 0.012559 66 245 66
-0.033294 0.119149 0.013466 66 245 66
-0.033148 0.119184 0.014261 66 245 66
-0.033002 0.119219 0.015056 66 245 66
-0.032797 0.119245 0.015738 66 245 66
-0.032533 0.119261 0.016309 66 245 66
-0.032150 0.119259 0.016655 66 245 66
-0.031886 0.119275 0.017225 66 245 66
-0.031562 0.119282 0.017684 66 245 66
-0.031239 0.119289 0.018142 66 245 66
-0.030915 0.119296 0.018600 66 245 66
-0.030533 0.119293 0.018946 66 245 66
-0.030150 0.119291 0.019292 66 245 66
-0.029827 0.119298 0.019751 66 245 66
-0.029444 0.119296 0.020097 66 245 66
-0.029062 0.119293 0.020443 66 245 66
-0.028679 0.119291 0.020789 66 245 66
-0.028237 0.119279 0.021023 66 245 66
-0.027855 0.119276 0.021369 66 245 66
-0.027354 0.119255 0.021491 66 245 66
-0.026853 0.119234 0.021613 66 245 66
-0.026352 0.119213 0.021734 66 245 66
-0.025910 0.119201 0.021968 66 245 66
-0.025409 0.119180 0.022090 66 245 66
-0.024849 0.119149 0.022100 66 245 66
-0.024408 0.119138 0.022333 66 245 66
-0.023788 0.119098 0.022231 66 245 66
-0.023287 0.119077 0.022353 66 245 66
-0.022668 0.119037 0.022250 66 245 66
-0.022226 0.119025 0.022484 66 245 66
-0.021489 0.118966 0.022157 66 245 66
-0.020870 0.118926 0.022054 66 245 66
-0.020546 0.118933 0.022512 66 245 66
-0.020223 0.118940 0.022971 66 245 66
-0.019958 0.118957 0.023541 66 245 66
-0.019576 0.118954 0.023887 66 245 66
-0.019252 0.118961 0.024346 66 245 66
-0.018811 0.118949 0.024580 66 245 66
-0.018369 0.118938 0.024813 66 245 66
-0.017986 0.118935 0.025160 66 245 66
-0.017545 0.118923 0.025394 66 245 66
-0.017044 0.118902 0.025515 66 245 66
-0.016425 0.118862 0.025413 66 245 66
-0.015983 0.118850 0.025647 66 245 66
-0.015659 0.118857 0.026105 66 245 66
-0.015454 0.118883 0.026788 66 245 66
-0.015249 0.118909 0.027470 66 245 66
-0.014985 0.118925 0.028041 66 245 66
-0.014661 0.118932 0.028499 66 245 66
-0.014338 0.118939 0.028957 66 245 66
-0.013955 0.118937 0.029303 66 245 66
-0.013632 0.118944 0.029762 66 245 66
-0.013309 0.118951 0.030220 66 245 66
-0.012926 0.118948 0.030566 66 245 66
-0.012484 0.118936 0.030800 66 245 66
-0.012102 0.118934 0.031146 66 245 66
-0.011719 0.118932 0.031492 66 245 66
-0.011277 0.118920 0.031726 66 245 66
-0.010836 0.118908 0.031960 66 245 66
-0.010394 0.118896 0.032194 66 245 66
-0.009952 0.118885 0.032428 66 245 66
-0.009451 0.118863 0.032550 66 245 66
-0.009009 0.118852 0.032784 66 245 66
-0.008508 0.118830 0.032905 66 245 66
-0.008008 0.118809 0.033027 66 245 66
-0.007507 0.118788 0.033149 66 245 66
-0.007006 0.118767 0.033271 66 245 66
-0.006446 0.118736 0.033280 66 245 66
-0.006004 0.118725 0.033514 66 245 66
-0.005385 0.118685 0.033411 66 245 66
-0.004884 0.118663 0.033533 66 245 66
