ply
format ascii 1.0
element vertex 1338
property float x
property float y
property float z
property uchar red
property uchar green
property uchar blue
end_header
0.011 0.137657 0.0187733 0 0 255
0.0115 0.137657 0.0187733 0 0 255
0.012 0.137649 0.0185194 0 0 255
0.0125 0.137627 0.0178845 0 0 255
0.013 0.137614 0.0175035 0 0 255
0.0135 0.137618 0.0176305 0 0 255
0.014 0.137627 0.0178845 0 0 255
0.0145 0.137627 0.0178845 0 0 255
0.015 0.137631 0.0180114 0 0 255
0.0155 0.137631 0.0180114 0 0 255
0.016 0.137618 0.0176305 0 0 255
0.0165 0.13761 0.0173766 0 0 255
0.017 0.137588 0.0167417 0 0 255
0.0175 0.137471 0.0133132 0 0 255
0.018 0.137467 0.0131863 0 0 255
0.0185 0.137471 0.0133132 0 0 255
0.019 0.137449 0.0126783 0 0 255
0.0195 0.137432 0.0121704 0 0 255
0.02 0.137393 0.0110276 0 0 255
0.0205 0.137285 0.00785317 0 0 255
0.021 0.137271 0.00747223 0 0 255
0.0215 0.137267 0.00734527 0 0 255
0.022 0.13725 0.00683735 0 0 255
0.0225 0.137224 0.00605164 0 0 255
0.023 0.137179 0.00456749 0 0 255
0.0235 0.136997 -0.0013691 0 0 255
0.024 0.137071 0.0010595 0 0 255
-0.03175 0.138641 0.0263909 0 0 255
-0.03125 0.138667 0.0271528 0 0 255
-0.03075 0.138688 0.0277877 0 0 255
-0.03025 0.138705 0.0282956 0 0 255
-0.02975 0.138726 0.0289304 0 0 255
-0.02925 0.138743 0.0294383 0 0 255
-0.02875 0.13876 0.0299463 0 0 255
-0.02825 0.138778 0.0304542 0 0 255
-0.02775 0.138795 0.0309621 0 0 255
-0.02725 0.138807 0.031343 0 0 255
-0.02675 0.138816 0.031597 0 0 255
-0.02625 0.138824 0.0318509 0 0 255
-0.02575 0.138833 0.0321049 0 0 255
-0.02525 0.138837 0.0322318 0 0 255
-0.02475 0.138842 0.0323588 0 0 255
-0.02425 0.138842 0.0323588 0 0 255
-0.02375 0.138842 0.0323588 0 0 255
-0.02325 0.138846 0.0324858 0 0 255
-0.02275 0.138842 0.0323588 0 0 255
-0.02225 0.138842 0.0323588 0 0 255
-0.02175 0.138829 0.0319779 0 0 255
-0.02125 0.138824 0.0318509 0 0 255
-0.02075 0.138816 0.031597 0 0 255
-0.02025 0.138807 0.031343 0 0 255
-0.01975 0.138799 0.0310891 0 0 255
-0.01925 0.138803 0.031216 0 0 255
-0.01875 0.138803 0.031216 0 0 255
-0.01825 0.138803 0.031216 0 0 255
-0.01775 0.138807 0.031343 0 0 255
-0.01725 0.138803 0.031216 0 0 255
-0.01675 0.138803 0.031216 0 0 255
-0.01625 0.138807 0.031343 0 0 255
-0.01575 0.138807 0.031343 0 0 255
-0.01525 0.138807 0.031343 0 0 255
-0.01475 0.138803 0.031216 0 0 255
-0.01425 0.138799 0.0310891 0 0 255
-0.01375 0.138769 0.0302002 0 0 255
-0.01325 0.138778 0.0304542 0 0 255
-0.01275 0.138782 0.0305812 0 0 255
-0.01225 0.138782 0.0305812 0 0 255
-0.01175 0.138786 0.0307081 0 0 255
-0.01125 0.138786 0.0307081 0 0 255
-0.01075 0.138778 0.0304542 0 0 255
-0.01025 0.138782 0.0305812 0 0 255
-0.00975 0.138773 0.0303272 0 0 255
-0.00925 0.138769 0.0302002 0 0 255
-0.00875 0.138769 0.0302002 0 0 255
-0.00825 0.13876 0.0299463 0 0 255
-0.00775 0.13876 0.0299463 0 0 255
-0.00725 0.138748 0.0295653 0 0 255
-0.00675 0.138748 0.0295653 0 0 255
-0.00625 0.138743 0.0294383 0 0 255
-0.00575 0.138731 0.0290574 0 0 255
-0.00525 0.138726 0.0289304 0 0 255
-0.00475 0.138718 0.0286765 0 0 255
-0.00425 0.138709 0.0284225 0 0 255
-0.00375 0.138709 0.0284225 0 0 255
-0.00325 0.138705 0.0282956 0 0 255
-0.00275 0.138696 0.0280416 0 0 255
-0.00225 0.138692 0.0279146 0 0 255
-0.00175 0.138684 0.0276607 0 0 255
-0.00125 0.138671 0.0272798 0 0 255
-0.00075 0.138658 0.0268988 0 0 255
-0.00025 0.138641 0.0263909 0 0 255
0.00025 0.138632 0.026137 0 0 255
0.00075 0.138615 0.0256291 0 0 255
0.00125 0.138603 0.0252481 0 0 255
0.00175 0.138586 0.0247402 0 0 255
0.00225 0.13859 0.0248672 0 0 255
0.00275 0.13859 0.0248672 0 0 255
0.00325 0.13859 0.0248672 0 0 255
0.00375 0.138594 0.0249942 0 0 255
0.00425 0.138522 0.0228356 0 0 255
0.00475 0.138517 0.0227086 0 0 255
0.00525 0.138513 0.0225816 0 0 255
0.00575 0.138509 0.0224547 0 0 255
0.00625 0.1385 0.0222007 0 0 255
0.00675 0.138483 0.0216928 0 0 255
0.00725 0.138466 0.0211849 0 0 255
0.00775 0.138453 0.020804 0 0 255
0.00825 0.138449 0.020677 0 0 255
0.00875 0.13844 0.020423 0 0 255
0.00925 0.138398 0.0191533 0 0 255
0.00975 0.138402 0.0192802 0 0 255
0.01025 0.138385 0.0187723 0 0 255
0.01075 0.138368 0.0182644 0 0 255
0.01125 0.138364 0.0181374 0 0 255
0.01175 0.138359 0.0180105 0 0 255
0.01225 0.138347 0.0176295 0 0 255
0.01275 0.138304 0.0163598 0 0 255
0.01325 0.138308 0.0164868 0 0 255
0.01375 0.138321 0.0168677 0 0 255
0.01425 0.138325 0.0169947 0 0 255
0.01475 0.138334 0.0172486 0 0 255
0.01525 0.138338 0.0173756 0 0 255
0.01575 0.138334 0.0172486 0 0 255
0.01625 0.13833 0.0171216 0 0 255
0.01675 0.138317 0.0167407 0 0 255
0.01725 0.138287 0.0158519 0 0 255
0.01775 0.13818 0.0126775 0 0 255
0.01825 0.138176 0.0125505 0 0 255
0.01875 0.138163 0.0121695 0 0 255
0.01925 0.138074 0.00950305 0 0 255
0.01975 0.138052 0.00886816 0 0 255
0.02025 0.138044 0.00861421 0 0 255
0.02075 0.138018 0.00785235 0 0 255
0.02125 0.138014 0.00772538 0 0 255
0.02175 0.137984 0.00683655 0 0 255
0.02225 0.137923 0.00483654 0 0 255
0.02275 0.137898 0.00402698 0 0 255
0.02325 0.137829 0.00173329 0 0 255
0.02375 0.137748 -0.00096518 0 0 255
0.02425 0.137756 -0.00069533 0 0 255
-0.032 0.139369 0.0265168 0 0 255
-0.0315 0.139394 0.0272787 0 0 255
-0.031 0.139415 0.0279135 0 0 255
-0.0305 0.139432 0.0284214 0 0 255
-0.03 0.139453 0.0290563 0 0 255
-0.0295 0.139469 0.0295642 0 0 255
-0.029 0.139482 0.0299451 0 0 255
-0.0285 0.139499 0.030453 0 0 255
-0.028 0.139516 0.0309609 0 0 255
-0.0275 0.139528 0.0313418 0 0 255
-0.027 0.139541 0.0317228 0 0 255
-0.0265 0.139549 0.0319767 0 0 255
-0.026 0.139557 0.0322307 0 0 255
-0.0255 0.139566 0.0324846 0 0 255
-0.025 0.139566 0.0324846 0 0 255
-0.0245 0.13957 0.0326116 0 0 255
-0.024 0.139574 0.0327386 0 0 255
-0.0235 0.139578 0.0328656 0 0 255
-0.023 0.139578 0.0328656 0 0 255
-0.0225 0.139574 0.0327386 0 0 255
-0.022 0.139574 0.0327386 0 0 255
-0.0215 0.13957 0.0326116 0 0 255
-0.021 0.139557 0.0322307 0 0 255
-0.0205 0.139541 0.0317228 0 0 255
-0.02 0.13952 0.0310879 0 0 255
-0.0195 0.13952 0.0310879 0 0 255
-0.019 0.139524 0.0312149 0 0 255
-0.0185 0.139528 0.0313418 0 0 255
-0.018 0.139532 0.0314688 0 0 255
-0.0175 0.139532 0.0314688 0 0 255
-0.017 0.139532 0.0314688 0 0 255
-0.0165 0.139537 0.0315958 0 0 255
-0.016 0.139545 0.0318498 0 0 255
-0.0155 0.139545 0.0318498 0 0 255
-0.015 0.139541 0.0317228 0 0 255
-0.0145 0.139532 0.0314688 0 0 255
-0.014 0.139524 0.0312149 0 0 255
-0.0135 0.139507 0.030707 0 0 255
-0.013 0.139511 0.0308339 0 0 255
-0.0125 0.139511 0.0308339 0 0 255
-0.012 0.139511 0.0308339 0 0 255
-0.0115 0.139516 0.0309609 0 0 255
-0.011 0.139516 0.0309609 0 0 255
-0.0105 0.139516 0.0309609 0 0 255
-0.01 0.139507 0.030707 0 0 255
-0.0095 0.139507 0.030707 0 0 255
-0.009 0.139503 0.03058 0 0 255
-0.0085 0.139495 0.0303261 0 0 255
-0.008 0.13949 0.0301991 0 0 255
-0.0075 0.139486 0.0300721 0 0 255
-0.007 0.139474 0.0296912 0 0 255
-0.0065 0.139474 0.0296912 0 0 255
-0.006 0.139465 0.0294372 0 0 255
-0.0055 0.139457 0.0291833 0 0 255
-0.005 0.139448 0.0289293 0 0 255
-0.0045 0.139444 0.0288024 0 0 255
-0.004 0.139432 0.0284214 0 0 255
-0.0035 0.139423 0.0281675 0 0 255
-0.003 0.139415 0.0279135 0 0 255
-0.0025 0.139411 0.0277866 0 0 255
-0.002 0.139402 0.0275326 0 0 255
-0.0015 0.139394 0.0272787 0 0 255
-0.001 0.139394 0.0272787 0 0 255
-0.0005 0.139381 0.0268977 0 0 255
0.0 0.139364 0.0263898 0 0 255
0.0005 0.139343 0.025755 0 0 255
0.001 0.139331 0.025374 0 0 255
0.0015 0.13931 0.0247392 0 0 255
0.002 0.139301 0.0244852 0 0 255
0.0025 0.139306 0.0246122 0 0 255
0.003 0.13931 0.0247392 0 0 255
0.0035 0.13931 0.0247392 0 0 255
0.004 0.13926 0.0232155 0 0 255
0.0045 0.139243 0.0227076 0 0 255
0.005 0.139243 0.0227076 0 0 255
0.0055 0.139226 0.0221997 0 0 255
0.006 0.139218 0.0219457 0 0 255
0.0065 0.139205 0.0215648 0 0 255
0.007 0.139167 0.020422 0 0 255
0.0075 0.139159 0.0201681 0 0 255
0.008 0.139146 0.0197871 0 0 255
0.0085 0.13915 0.0199141 0 0 255
0.009 0.139121 0.0190253 0 0 255
0.0095 0.139117 0.0188983 0 0 255
0.01 0.139108 0.0186444 0 0 255
0.0105 0.139096 0.0182635 0 0 255
0.011 0.139075 0.0176286 0 0 255
0.0115 0.139075 0.0176286 0 0 255
0.012 0.139062 0.0172477 0 0 255
0.0125 0.139016 0.0158509 0 0 255
0.013 0.139016 0.0158509 0 0 255
0.0135 0.13902 0.0159779 0 0 255
0.014 0.139029 0.0162319 0 0 255
0.0145 0.139037 0.0164858 0 0 255
0.015 0.139041 0.0166128 0 0 255
0.0155 0.139046 0.0167398 0 0 255
0.016 0.139046 0.0167398 0 0 255
0.0165 0.139033 0.0163588 0 0 255
0.017 0.13902 0.0159779 0 0 255
0.0175 0.139004 0.01547 0 0 255
0.018 0.138836 0.010391 0 0 255
0.0185 0.138827 0.0101371 0 0 255
0.019 0.138815 0.00975615 0 0 255
0.0195 0.138806 0.00950221 0 0 255
0.02 0.138785 0.00886732 0 0 255
0.0205 0.138764 0.00823247 0 0 255
0.021 0.138743 0.00759759 0 0 255
0.0215 0.138658 0.00483572 0 0 255
0.022 0.138658 0.00483572 0 0 255
0.0225 0.138586 0.0024071 0 0 255
0.023 0.138567 0.00173247 0 0 255
-0.03275 0.140067 0.0257539 0 0 255
-0.03225 0.140092 0.0265157 0 0 255
-0.03175 0.140117 0.0272776 0 0 255
-0.03125 0.140137 0.0279124 0 0 255
-0.03075 0.140154 0.0284203 0 0 255
-0.03025 0.140175 0.0290552 0 0 255
-0.02975 0.140187 0.0294361 0 0 255
-0.02925 0.140203 0.029944 0 0 255
-0.02875 0.140216 0.0303249 0 0 255
-0.02825 0.140232 0.0308328 0 0 255
-0.02775 0.140245 0.0312137 0 0 255
-0.02725 0.140257 0.0315947 0 0 255
-0.02675 0.140269 0.0319756 0 0 255
-0.02625 0.140274 0.0321025 0 0 255
-0.02575 0.140286 0.0324835 0 0 255
-0.02525 0.14029 0.0326104 0 0 255
-0.02475 0.140294 0.0327374 0 0 255
-0.02425 0.140298 0.0328644 0 0 255
-0.02375 0.140302 0.0329914 0 0 255
-0.02325 0.140307 0.0331183 0 0 255
-0.02275 0.140302 0.0329914 0 0 255
-0.02225 0.140302 0.0329914 0 0 255
-0.02175 0.140294 0.0327374 0 0 255
-0.02125 0.14029 0.0326104 0 0 255
-0.02075 0.140282 0.0323565 0 0 255
-0.02025 0.140265 0.0318486 0 0 255
-0.01975 0.140253 0.0314677 0 0 255
-0.01925 0.140253 0.0314677 0 0 255
-0.01875 0.140253 0.0314677 0 0 255
-0.01825 0.140257 0.0315947 0 0 255
-0.01775 0.140265 0.0318486 0 0 255
-0.01725 0.140269 0.0319756 0 0 255
-0.01675 0.140274 0.0321025 0 0 255
-0.01625 0.140282 0.0323565 0 0 255
-0.01575 0.140286 0.0324835 0 0 255
-0.01525 0.140286 0.0324835 0 0 255
-0.01475 0.140286 0.0324835 0 0 255
-0.01425 0.140274 0.0321025 0 0 255
-0.01375 0.140249 0.0313407 0 0 255
-0.01325 0.140245 0.0312137 0 0 255
-0.01275 0.140245 0.0312137 0 0 255
-0.01225 0.140249 0.0313407 0 0 255
-0.01175 0.140249 0.0313407 0 0 255
-0.01125 0.140249 0.0313407 0 0 255
-0.01075 0.140249 0.0313407 0 0 255
-0.01025 0.140241 0.0310868 0 0 255
-0.00975 0.140236 0.0309598 0 0 255
-0.00925 0.140236 0.0309598 0 0 255
-0.00875 0.140232 0.0308328 0 0 255
-0.00825 0.14022 0.0304519 0 0 255
-0.00775 0.14022 0.0304519 0 0 255
-0.00725 0.140208 0.030071 0 0 255
-0.00675 0.140203 0.029944 0 0 255
-0.00625 0.140199 0.029817 0 0 255
-0.00575 0.140195 0.0296901 0 0 255
-0.00525 0.140183 0.0293091 0 0 255
-0.00475 0.140179 0.0291822 0 0 255
-0.00425 0.140166 0.0288013 0 0 255
-0.00375 0.140162 0.0286743 0 0 255
-0.00325 0.140146 0.0281664 0 0 255
-0.00275 0.140137 0.0279124 0 0 255
-0.00225 0.140125 0.0275315 0 0 255
-0.00175 0.140117 0.0272776 0 0 255
-0.00125 0.140113 0.0271506 0 0 255
-0.00075 0.140104 0.0268967 0 0 255
-0.00025 0.140092 0.0265157 0 0 255
0.00025 0.140075 0.0260078 0 0 255
0.00075 0.140067 0.0257539 0 0 255
0.00125 0.140055 0.025373 0 0 255
0.00175 0.140026 0.0244842 0 0 255
0.00225 0.140026 0.0244842 0 0 255
0.00275 0.140026 0.0244842 0 0 255
0.00325 0.140026 0.0244842 0 0 255
0.00375 0.140014 0.0241032 0 0 255
0.00425 0.139989 0.0233414 0 0 255
0.00475 0.139972 0.0228335 0 0 255
0.00525 0.139956 0.0223256 0 0 255
0.00575 0.139943 0.0219447 0 0 255
0.00625 0.139927 0.0214368 0 0 255
0.00675 0.139898 0.020548 0 0 255
0.00725 0.13989 0.0202941 0 0 255
0.00775 0.139865 0.0195322 0 0 255
0.00825 0.139865 0.0195322 0 0 255
0.00875 0.139857 0.0192783 0 0 255
0.00925 0.139844 0.0188974 0 0 255
0.00975 0.139828 0.0183895 0 0 255
0.01025 0.139816 0.0180086 0 0 255
0.01075 0.139795 0.0173737 0 0 255
0.01125 0.139795 0.0173737 0 0 255
0.01175 0.13977 0.0166118 0 0 255
0.01225 0.139758 0.0162309 0 0 255
0.01275 0.139729 0.0153421 0 0 255
0.01325 0.139733 0.0154691 0 0 255
0.01375 0.139733 0.0154691 0 0 255
0.01425 0.139741 0.015723 0 0 255
0.01475 0.139745 0.01585 0 0 255
0.01525 0.139749 0.015977 0 0 255
0.01575 0.139749 0.015977 0 0 255
0.01625 0.139745 0.01585 0 0 255
0.01675 0.139741 0.015723 0 0 255
0.01725 0.139721 0.0150882 0 0 255
0.01775 0.1397 0.0144533 0 0 255
0.01825 0.139556 0.0100093 0 0 255
0.01875 0.139551 0.00988229 0 0 255
0.01925 0.139547 0.0097553 0 0 255
0.01975 0.139531 0.00924741 0 0 255
0.02025 0.139481 0.00772375 0 0 255
0.02075 0.139477 0.00759677 0 0 255
0.02125 0.139393 0.00483492 0 0 255
0.02175 0.139378 0.00429522 0 0 255
0.02225 0.139316 0.00213642 0 0 255
0.02275 0.139292 0.00132687 0 0 255
-0.033 0.140779 0.0253719 0 0 255
-0.0325 0.140807 0.0262607 0 0 255
-0.032 0.140832 0.0270225 0 0 255
-0.0315 0.140848 0.0275304 0 0 255
-0.031 0.140868 0.0281653 0 0 255
-0.0305 0.140884 0.0286732 0 0 255
-0.03 0.140901 0.029181 0 0 255
-0.0295 0.140913 0.029562 0 0 255
-0.029 0.140929 0.0300698 0 0 255
-0.0285 0.140941 0.0304507 0 0 255
-0.028 0.140957 0.0309586 0 0 255
-0.0275 0.140969 0.0313395 0 0 255
-0.027 0.140982 0.0317204 0 0 255
-0.0265 0.14099 0.0319744 0 0 255
-0.026 0.140998 0.0322283 0 0 255
-0.0255 0.141006 0.0324823 0 0 255
-0.025 0.141014 0.0327362 0 0 255
-0.0245 0.141022 0.0329902 0 0 255
-0.024 0.141026 0.0331171 0 0 255
-0.0235 0.14103 0.0332441 0 0 255
-0.023 0.14103 0.0332441 0 0 255
-0.0225 0.141026 0.0331171 0 0 255
-0.022 0.141022 0.0329902 0 0 255
-0.0215 0.141014 0.0327362 0 0 255
-0.021 0.14101 0.0326092 0 0 255
-0.0205 0.140998 0.0322283 0 0 255
-0.02 0.140994 0.0321014 0 0 255
-0.0195 0.140998 0.0322283 0 0 255
-0.019 0.14099 0.0319744 0 0 255
-0.0185 0.140998 0.0322283 0 0 255
-0.018 0.141006 0.0324823 0 0 255
-0.0175 0.141018 0.0328632 0 0 255
-0.017 0.141018 0.0328632 0 0 255
-0.0165 0.141026 0.0331171 0 0 255
-0.016 0.141026 0.0331171 0 0 255
-0.0155 0.141026 0.0331171 0 0 255
-0.015 0.141022 0.0329902 0 0 255
-0.0145 0.141022 0.0329902 0 0 255
-0.014 0.141014 0.0327362 0 0 255
-0.0135 0.140978 0.0315935 0 0 255
-0.013 0.140978 0.0315935 0 0 255
-0.0125 0.140982 0.0317204 0 0 255
-0.012 0.140982 0.0317204 0 0 255
-0.0115 0.140982 0.0317204 0 0 255
-0.011 0.140982 0.0317204 0 0 255
-0.0105 0.140982 0.0317204 0 0 255
-0.01 0.140969 0.0313395 0 0 255
-0.0095 0.140974 0.0314665 0 0 255
-0.009 0.140961 0.0310856 0 0 255
-0.0085 0.140957 0.0309586 0 0 255
-0.008 0.140953 0.0308317 0 0 255
-0.0075 0.140941 0.0304507 0 0 255
-0.007 0.140937 0.0303238 0 0 255
-0.0065 0.140933 0.0301968 0 0 255
-0.006 0.140921 0.0298159 0 0 255
-0.0055 0.140917 0.0296889 0 0 255
-0.005 0.140909 0.029435 0 0 255
-0.0045 0.140901 0.029181 0 0 255
-0.004 0.140892 0.0289271 0 0 255
-0.0035 0.140888 0.0288001 0 0 255
-0.003 0.140872 0.0282922 0 0 255
-0.0025 0.14086 0.0279113 0 0 255
-0.002 0.140852 0.0276574 0 0 255
-0.0015 0.14084 0.0272765 0 0 255
-0.001 0.140836 0.0271495 0 0 255
-0.0005 0.140819 0.0266416 0 0 255
0.0 0.140811 0.0263877 0 0 255
0.0005 0.140795 0.0258798 0 0 255
0.001 0.140787 0.0256258 0 0 255
0.0015 0.140775 0.0252449 0 0 255
0.002 0.140763 0.024864 0 0 255
0.0025 0.140755 0.0246101 0 0 255
0.003 0.14075 0.0244831 0 0 255
0.0035 0.140742 0.0242292 0 0 255
0.004 0.14073 0.0238482 0 0 255
0.0045 0.140718 0.0234673 0 0 255
0.005 0.140702 0.0229594 0 0 255
0.0055 0.140677 0.0221976 0 0 255
0.006 0.140657 0.0215628 0 0 255
0.0065 0.140645 0.0211818 0 0 255
0.007 0.140621 0.02042 0 0 255
0.0075 0.140596 0.0196582 0 0 255
0.008 0.140588 0.0194043 0 0 255
0.0085 0.140576 0.0190234 0 0 255
0.009 0.140564 0.0186424 0 0 255
0.0095 0.140531 0.0176267 0 0 255
0.01 0.140531 0.0176267 0 0 255
0.0105 0.140519 0.0172458 0 0 255
0.011 0.140515 0.0171188 0 0 255
0.0115 0.140475 0.0158491 0 0 255
0.012 0.140471 0.0157221 0 0 255
0.0125 0.140462 0.0154682 0 0 255
0.013 0.140434 0.0145794 0 0 255
0.0135 0.140438 0.0147063 0 0 255
0.014 0.140446 0.0149603 0 0 255
0.0145 0.14045 0.0150872 0 0 255
0.015 0.140454 0.0152142 0 0 255
0.0155 0.140458 0.0153412 0 0 255
0.016 0.140458 0.0153412 0 0 255
0.0165 0.140454 0.0152142 0 0 255
0.017 0.140442 0.0148333 0 0 255
0.0175 0.140422 0.0141984 0 0 255
0.018 0.140268 0.00937355 0 0 255
0.0185 0.140272 0.00950053 0 0 255
0.019 0.140268 0.00937355 0 0 255
0.0195 0.140231 0.00823081 0 0 255
0.0205 0.14011 0.00415948 0 0 255
0.021 0.140117 0.00442934 0 0 255
0.0215 0.13995 -0.00150738 0 0 255
0.022 0.140041 0.00173082 0 0 255
-0.03275 0.141519 0.0258787 0 0 255
-0.03225 0.141539 0.0265136 0 0 255
-0.03175 0.141559 0.0271484 0 0 255
-0.03125 0.141579 0.0277832 0 0 255
-0.03075 0.141595 0.0282911 0 0 255
-0.03025 0.141614 0.028926 0 0 255
-0.02975 0.14163 0.0294338 0 0 255
-0.02925 0.141654 0.0301957 0 0 255
-0.02875 0.14167 0.0307035 0 0 255
-0.02825 0.141674 0.0308305 0 0 255
-0.02775 0.14169 0.0313384 0 0 255
-0.02725 0.141698 0.0315923 0 0 255
-0.02675 0.141706 0.0318463 0 0 255
-0.02625 0.141714 0.0321002 0 0 255
-0.02575 0.141722 0.0323541 0 0 255
-0.02525 0.14173 0.0326081 0 0 255
-0.02475 0.141734 0.0327351 0 0 255
-0.02425 0.141742 0.032989 0 0 255
-0.02375 0.14175 0.0332429 0 0 255
-0.02325 0.14175 0.0332429 0 0 255
-0.02275 0.141754 0.0333699 0 0 255
-0.02225 0.141746 0.0331159 0 0 255
-0.02175 0.141734 0.0327351 0 0 255
-0.02125 0.141734 0.0327351 0 0 255
-0.02075 0.14173 0.0326081 0 0 255
-0.02025 0.141726 0.0324811 0 0 255
-0.01975 0.141726 0.0324811 0 0 255
-0.01925 0.141734 0.0327351 0 0 255
-0.01875 0.141738 0.032862 0 0 255
-0.01825 0.141746 0.0331159 0 0 255
-0.01775 0.141754 0.0333699 0 0 255
-0.01725 0.141754 0.0333699 0 0 255
-0.01675 0.141758 0.0334969 0 0 255
-0.01625 0.141762 0.0336238 0 0 255
-0.01575 0.141758 0.0334969 0 0 255
-0.01525 0.141758 0.0334969 0 0 255
-0.01475 0.141762 0.0336238 0 0 255
-0.01425 0.141762 0.0336238 0 0 255
-0.01375 0.141758 0.0334969 0 0 255
-0.01325 0.141722 0.0323541 0 0 255
-0.01275 0.141718 0.0322272 0 0 255
-0.01225 0.141722 0.0323541 0 0 255
-0.01175 0.141718 0.0322272 0 0 255
-0.01125 0.141718 0.0322272 0 0 255
-0.01075 0.141718 0.0322272 0 0 255
-0.01025 0.141718 0.0322272 0 0 255
-0.00975 0.14171 0.0319732 0 0 255
-0.00925 0.14171 0.0319732 0 0 255
-0.00875 0.141698 0.0315923 0 0 255
-0.00825 0.141694 0.0314654 0 0 255
-0.00775 0.14169 0.0313384 0 0 255
-0.00725 0.141674 0.0308305 0 0 255
-0.00675 0.141674 0.0308305 0 0 255
-0.00625 0.141658 0.0303226 0 0 255
-0.00575 0.14165 0.0300687 0 0 255
-0.00525 0.141642 0.0298148 0 0 255
-0.00475 0.141634 0.0295608 0 0 255
-0.00425 0.141626 0.0293069 0 0 255
-0.00375 0.141618 0.0290529 0 0 255
-0.00325 0.14161 0.028799 0 0 255
-0.00275 0.141599 0.0284181 0 0 255
-0.00225 0.141583 0.0279102 0 0 255
-0.00175 0.141575 0.0276563 0 0 255
-0.00125 0.141567 0.0274023 0 0 255
-0.00075 0.141555 0.0270214 0 0 255
-0.00025 0.141547 0.0267675 0 0 255
0.00025 0.141523 0.0260057 0 0 255
0.00075 0.141511 0.0256248 0 0 255
0.00125 0.141515 0.0257517 0 0 255
0.00175 0.141499 0.0252439 0 0 255
0.00225 0.141503 0.0253708 0 0 255
0.00275 0.141491 0.0249899 0 0 255
0.00325 0.141483 0.024736 0 0 255
0.00375 0.141471 0.0243551 0 0 255
0.00425 0.141459 0.0239742 0 0 255
0.00475 0.141451 0.0237202 0 0 255
0.00525 0.141439 0.0233393 0 0 255
0.00575 0.141415 0.0225775 0 0 255
0.00625 0.141383 0.0215618 0 0 255
0.00675 0.141367 0.0210539 0 0 255
0.00725 0.141343 0.0202921 0 0 255
0.00775 0.141311 0.0192763 0 0 255
0.00825 0.141296 0.0187684 0 0 255
0.00875 0.14128 0.0182606 0 0 255
0.00925 0.141256 0.0174987 0 0 255
0.00975 0.141252 0.0173718 0 0 255
0.01025 0.141244 0.0171178 0 0 255
0.01075 0.141232 0.0167369 0 0 255
0.01125 0.141188 0.0153402 0 0 255
0.01175 0.141188 0.0153402 0 0 255
0.01225 0.141184 0.0152133 0 0 255
0.01275 0.141144 0.0139436 0 0 255
0.01325 0.141144 0.0139436 0 0 255
0.01375 0.141148 0.0140706 0 0 255
0.01425 0.141152 0.0141975 0 0 255
0.01475 0.141156 0.0143245 0 0 255
0.01525 0.141156 0.0143245 0 0 255
0.01575 0.14116 0.0144515 0 0 255
0.01625 0.14116 0.0144515 0 0 255
0.01675 0.141164 0.0145784 0 0 255
0.01725 0.141148 0.0140706 0 0 255
0.01775 0.141116 0.0130548 0 0 255
0.01825 0.140965 0.00822999 0 0 255
0.01875 0.140961 0.00810301 0 0 255
0.01925 0.140929 0.00708726 0 0 255
0.01975 0.140849 0.0042936 0 0 255
0.02025 0.140816 0.00307926 0 0 255
0.02075 0.140719 -0.0004288 0 0 255
0.02125 0.140679 -0.00191299 0 0 255
0.02175 0.140693 -0.00137328 0 0 255
-0.0325 0.142242 0.0258776 0 0 255
-0.031 0.142364 0.0298136 0 0 255
-0.0305 0.142387 0.0305754 0 0 255
-0.03 0.142403 0.0310833 0 0 255
-0.0295 0.142411 0.0313372 0 0 255
-0.029 0.142419 0.0315912 0 0 255
-0.0285 0.142427 0.0318451 0 0 255
-0.028 0.14243 0.0319721 0 0 255
-0.0275 0.142438 0.032226 0 0 255
-0.027 0.142442 0.032353 0 0 255
-0.0265 0.142446 0.03248 0 0 255
-0.026 0.142446 0.03248 0 0 255
-0.0255 0.14245 0.0326069 0 0 255
-0.025 0.14245 0.0326069 0 0 255
-0.0245 0.142458 0.0328608 0 0 255
-0.024 0.142462 0.0329878 0 0 255
-0.0235 0.142466 0.0331148 0 0 255
-0.023 0.14247 0.0332418 0 0 255
-0.0225 0.142466 0.0331148 0 0 255
-0.022 0.142462 0.0329878 0 0 255
-0.0215 0.142454 0.0327339 0 0 255
-0.021 0.14245 0.0326069 0 0 255
-0.0205 0.142454 0.0327339 0 0 255
-0.02 0.142462 0.0329878 0 0 255
-0.0195 0.142466 0.0331148 0 0 255
-0.019 0.14247 0.0332418 0 0 255
-0.0185 0.142478 0.0334957 0 0 255
-0.018 0.142481 0.0336226 0 0 255
-0.0175 0.142485 0.0337496 0 0 255
-0.017 0.142489 0.0338766 0 0 255
-0.0165 0.142493 0.0340035 0 0 255
-0.016 0.142505 0.0343844 0 0 255
-0.0155 0.142505 0.0343844 0 0 255
-0.015 0.142505 0.0343844 0 0 255
-0.0145 0.142505 0.0343844 0 0 255
-0.014 0.142501 0.0342575 0 0 255
-0.0135 0.142493 0.0340035 0 0 255
-0.013 0.142458 0.0328608 0 0 255
-0.0125 0.142466 0.0331148 0 0 255
-0.012 0.142462 0.0329878 0 0 255
-0.0115 0.142462 0.0329878 0 0 255
-0.011 0.142454 0.0327339 0 0 255
-0.0105 0.142458 0.0328608 0 0 255
-0.01 0.14245 0.0326069 0 0 255
-0.0095 0.142446 0.03248 0 0 255
-0.009 0.14245 0.0326069 0 0 255
-0.0085 0.142434 0.032099 0 0 255
-0.008 0.14243 0.0319721 0 0 255
-0.0075 0.14243 0.0319721 0 0 255
-0.007 0.142419 0.0315912 0 0 255
-0.0065 0.142407 0.0312103 0 0 255
-0.006 0.142395 0.0308294 0 0 255
-0.0055 0.142383 0.0304485 0 0 255
-0.005 0.142368 0.0299406 0 0 255
-0.0045 0.142368 0.0299406 0 0 255
-0.004 0.142356 0.0295597 0 0 255
-0.0035 0.142348 0.0293058 0 0 255
-0.003 0.142336 0.0289248 0 0 255
-0.0025 0.142321 0.028417 0 0 255
-0.002 0.142305 0.0279091 0 0 255
-0.0015 0.142297 0.0276552 0 0 255
-0.001 0.142289 0.0274012 0 0 255
-0.0005 0.142278 0.0270203 0 0 255
0.0 0.142262 0.0265125 0 0 255
0.0005 0.142246 0.0260046 0 0 255
0.001 0.142239 0.0257507 0 0 255
0.0015 0.142239 0.0257507 0 0 255
0.002 0.142231 0.0254967 0 0 255
0.0025 0.142231 0.0254967 0 0 255
0.003 0.142223 0.0252428 0 0 255
0.0035 0.142211 0.0248619 0 0 255
0.004 0.142199 0.024481 0 0 255
0.0045 0.142192 0.0242271 0 0 255
0.005 0.142188 0.0241001 0 0 255
0.0055 0.142168 0.0234652 0 0 255
0.006 0.142145 0.0227035 0 0 255
0.0065 0.142113 0.0216877 0 0 255
0.007 0.142094 0.0210529 0 0 255
0.0075 0.142062 0.0200371 0 0 255
0.008 0.142027 0.0188944 0 0 255
0.0085 0.142015 0.0185135 0 0 255
0.009 0.141992 0.0177517 0 0 255
0.0095 0.141964 0.016863 0 0 255
0.01 0.141957 0.016609 0 0 255
0.0105 0.141933 0.0158472 0 0 255
0.011 0.14191 0.0150854 0 0 255
0.0115 0.141906 0.0149584 0 0 255
0.012 0.141886 0.0143236 0 0 255
0.0125 0.141866 0.0136888 0 0 255
0.013 0.141847 0.0130539 0 0 255
0.0135 0.141851 0.0131809 0 0 255
0.014 0.141855 0.0133078 0 0 255
0.0145 0.141863 0.0135618 0 0 255
0.015 0.141859 0.0134348 0 0 255
0.0155 0.141866 0.0136888 0 0 255
0.016 0.141866 0.0136888 0 0 255
0.0165 0.141874 0.0139427 0 0 255
0.017 0.141866 0.0136888 0 0 255
0.0175 0.141827 0.0124191 0 0 255
0.018 0.141819 0.0121651 0 0 255
0.0185 0.141651 0.00670554 0 0 255
0.019 0.14164 0.00631669 0 0 255
0.0195 0.141476 0.00024499 0 0 255
0.02 0.141476 0.00024499 0 0 255
0.0205 0.141476 0.00024499 0 0 255
-0.03225 0.143062 0.0290507 0 0 255
-0.03175 0.143082 0.0296855 0 0 255
-0.03125 0.143101 0.0303203 0 0 255
-0.03075 0.143116 0.0308282 0 0 255
-0.03025 0.143132 0.0313361 0 0 255
-0.02975 0.143143 0.031717 0 0 255
-0.02925 0.143151 0.0319709 0 0 255
-0.02875 0.143159 0.0322248 0 0 255
-0.02825 0.143166 0.0324788 0 0 255
-0.02775 0.14317 0.0326057 0 0 255
-0.02725 0.143178 0.0328597 0 0 255
-0.02675 0.143185 0.0331136 0 0 255
-0.02625 0.143185 0.0331136 0 0 255
-0.02575 0.143185 0.0331136 0 0 255
-0.02525 0.143185 0.0331136 0 0 255
-0.02475 0.143185 0.0331136 0 0 255
-0.02425 0.143185 0.0331136 0 0 255
-0.02375 0.143182 0.0329866 0 0 255
-0.02325 0.143182 0.0329866 0 0 255
-0.02275 0.143185 0.0331136 0 0 255
-0.02225 0.143182 0.0329866 0 0 255
-0.02175 0.143182 0.0329866 0 0 255
-0.02125 0.143178 0.0328597 0 0 255
-0.02075 0.143178 0.0328597 0 0 255
-0.02025 0.143185 0.0331136 0 0 255
-0.01975 0.143193 0.0333675 0 0 255
-0.01925 0.143197 0.0334945 0 0 255
-0.01875 0.143205 0.0337484 0 0 255
-0.01825 0.143209 0.0338754 0 0 255
-0.01775 0.143216 0.0341293 0 0 255
-0.01725 0.143224 0.0343832 0 0 255
-0.01675 0.143235 0.0347642 0 0 255
-0.01625 0.143239 0.0348911 0 0 255
-0.01575 0.143243 0.0350181 0 0 255
-0.01525 0.143243 0.0350181 0 0 255
-0.01475 0.143243 0.0350181 0 0 255
-0.01425 0.143243 0.0350181 0 0 255
-0.01375 0.143239 0.0348911 0 0 255
-0.01325 0.143216 0.0341293 0 0 255
-0.01275 0.143205 0.0337484 0 0 255
-0.01225 0.143205 0.0337484 0 0 255
-0.01175 0.143205 0.0337484 0 0 255
-0.01125 0.143205 0.0337484 0 0 255
-0.01075 0.143201 0.0336215 0 0 255
-0.01025 0.143197 0.0334945 0 0 255
-0.00975 0.143205 0.0337484 0 0 255
-0.00925 0.143201 0.0336215 0 0 255
-0.00875 0.143193 0.0333675 0 0 255
-0.00825 0.143193 0.0333675 0 0 255
-0.00775 0.143178 0.0328597 0 0 255
-0.00725 0.143174 0.0327327 0 0 255
-0.00675 0.143166 0.0324788 0 0 255
-0.00625 0.143155 0.0320979 0 0 255
-0.00575 0.143155 0.0320979 0 0 255
-0.00525 0.143124 0.0310821 0 0 255
-0.00475 0.143105 0.0304473 0 0 255
-0.00425 0.143105 0.0304473 0 0 255
-0.00375 0.143089 0.0299394 0 0 255
-0.00325 0.14307 0.0293046 0 0 255
-0.00275 0.143062 0.0290507 0 0 255
-0.00225 0.143051 0.0286698 0 0 255
-0.00175 0.143032 0.028035 0 0 255
-0.00125 0.143024 0.0277811 0 0 255
-0.00075 0.143012 0.0274002 0 0 255
-0.00025 0.143005 0.0271462 0 0 255
0.00025 0.142982 0.0263844 0 0 255
0.00075 0.142974 0.0261305 0 0 255
0.00125 0.14297 0.0260035 0 0 255
0.00175 0.142962 0.0257496 0 0 255
0.00225 0.142962 0.0257496 0 0 255
0.00275 0.142962 0.0257496 0 0 255
0.00325 0.142951 0.0253687 0 0 255
0.00375 0.142939 0.0249878 0 0 255
0.00425 0.142928 0.0246069 0 0 255
0.00475 0.14292 0.024353 0 0 255
0.00525 0.142912 0.024099 0 0 255
0.00575 0.142901 0.0237182 0 0 255
0.00625 0.14287 0.0227024 0 0 255
0.00675 0.142832 0.0214328 0 0 255
0.00725 0.14282 0.0210519 0 0 255
0.00775 0.142778 0.0196552 0 0 255
0.00825 0.142743 0.0185125 0 0 255
0.00875 0.142732 0.0181316 0 0 255
0.00925 0.142697 0.016989 0 0 255
0.00975 0.14267 0.0161002 0 0 255
0.01025 0.142655 0.0155923 0 0 255
0.01075 0.142628 0.0147036 0 0 255
0.01125 0.142628 0.0147036 0 0 255
0.01175 0.142593 0.0135609 0 0 255
0.01225 0.142585 0.0133069 0 0 255
0.01275 0.142551 0.0121643 0 0 255
0.01325 0.142551 0.0121643 0 0 255
0.01375 0.142551 0.0121643 0 0 255
0.01425 0.142562 0.0125452 0 0 255
0.01475 0.142551 0.0121643 0 0 255
0.01525 0.142562 0.0125452 0 0 255
0.01575 0.142566 0.0126721 0 0 255
0.01625 0.142574 0.012926 0 0 255
0.01675 0.142566 0.0126721 0 0 255
0.01725 0.142531 0.0115294 0 0 255
0.01775 0.142535 0.0116564 0 0 255
0.01825 0.142254 0.00172836 0 0 255
0.01875 0.142254 0.00172836 0 0 255
0.01925 0.142254 0.00172836 0 0 255
0.01975 0.1422 -0.00029555 0 0 255
0.02025 0.142211 0.00010925 0 0 255
-0.0335 0.143743 0.027653 0 0 255
-0.033 0.143769 0.0285417 0 0 255
-0.0325 0.143792 0.0293035 0 0 255
-0.032 0.143811 0.0299383 0 0 255
-0.0315 0.143826 0.0304462 0 0 255
-0.031 0.143841 0.030954 0 0 255
-0.0305 0.143852 0.0313349 0 0 255
-0.03 0.143867 0.0318428 0 0 255
-0.0295 0.143875 0.0320967 0 0 255
-0.029 0.143883 0.0323506 0 0 255
-0.0285 0.14389 0.0326046 0 0 255
-0.028 0.143894 0.0327315 0 0 255
-0.0275 0.143901 0.0329855 0 0 255
-0.027 0.143909 0.0332394 0 0 255
-0.0265 0.143913 0.0333664 0 0 255
-0.026 0.143913 0.0333664 0 0 255
-0.0255 0.143917 0.0334933 0 0 255
-0.025 0.14392 0.0336203 0 0 255
-0.0245 0.143924 0.0337472 0 0 255
-0.024 0.143917 0.0334933 0 0 255
-0.0235 0.143905 0.0331124 0 0 255
-0.023 0.143898 0.0328585 0 0 255
-0.0225 0.143898 0.0328585 0 0 255
-0.022 0.143898 0.0328585 0 0 255
-0.0215 0.143901 0.0329855 0 0 255
-0.021 0.143901 0.0329855 0 0 255
-0.0205 0.143913 0.0333664 0 0 255
-0.02 0.14392 0.0336203 0 0 255
-0.0195 0.143924 0.0337472 0 0 255
-0.019 0.143932 0.0340012 0 0 255
-0.0185 0.143943 0.034382 0 0 255
-0.018 0.143947 0.034509 0 0 255
-0.0175 0.143958 0.0348899 0 0 255
-0.017 0.143966 0.0351438 0 0 255
-0.0165 0.143973 0.0353978 0 0 255
-0.016 0.143973 0.0353978 0 0 255
-0.0155 0.143973 0.0353978 0 0 255
-0.015 0.143973 0.0353978 0 0 255
-0.0145 0.143973 0.0353978 0 0 255
-0.014 0.143973 0.0353978 0 0 255
-0.0135 0.143969 0.0352708 0 0 255
-0.013 0.143954 0.034763 0 0 255
-0.0125 0.143939 0.0342551 0 0 255
-0.012 0.143943 0.034382 0 0 255
-0.0115 0.143954 0.034763 0 0 255
-0.011 0.143951 0.034636 0 0 255
-0.0105 0.143958 0.0348899 0 0 255
-0.01 0.143939 0.0342551 0 0 255
-0.0095 0.143939 0.0342551 0 0 255
-0.009 0.143935 0.0341281 0 0 255
-0.0085 0.14392 0.0336203 0 0 255
-0.008 0.143924 0.0337472 0 0 255
-0.0075 0.143913 0.0333664 0 0 255
-0.007 0.143905 0.0331124 0 0 255
-0.0065 0.14389 0.0326046 0 0 255
-0.006 0.143886 0.0324776 0 0 255
-0.0055 0.143883 0.0323506 0 0 255
-0.005 0.143867 0.0318428 0 0 255
-0.0045 0.143845 0.031081 0 0 255
-0.004 0.143841 0.030954 0 0 255
-0.0035 0.143822 0.0303192 0 0 255
-0.003 0.143807 0.0298114 0 0 255
-0.0025 0.143792 0.0293035 0 0 255
-0.002 0.143781 0.0289226 0 0 255
-0.0015 0.143758 0.0281608 0 0 255
-0.001 0.143747 0.0277799 0 0 255
-0.0005 0.143743 0.027653 0 0 255
0.0 0.14372 0.0268912 0 0 255
0.0005 0.143705 0.0263833 0 0 255
0.001 0.143697 0.0261294 0 0 255
0.0015 0.143697 0.0261294 0 0 255
0.002 0.143694 0.0260024 0 0 255
0.0025 0.143694 0.0260024 0 0 255
0.003 0.143694 0.0260024 0 0 255
0.0035 0.143679 0.0254946 0 0 255
0.004 0.143671 0.0252407 0 0 255
0.0045 0.143667 0.0251137 0 0 255
0.005 0.143645 0.0243519 0 0 255
0.0055 0.143637 0.024098 0 0 255
0.006 0.143629 0.023844 0 0 255
0.0065 0.143573 0.0219396 0 0 255
0.007 0.14355 0.0211778 0 0 255
0.0075 0.14352 0.0201621 0 0 255
0.008 0.14349 0.0191464 0 0 255
0.0085 0.143467 0.0183846 0 0 255
0.009 0.143456 0.0180037 0 0 255
0.0095 0.143414 0.0166071 0 0 255
0.01 0.14338 0.0154644 0 0 255
0.0105 0.143361 0.0148296 0 0 255
0.011 0.14335 0.0144487 0 0 255
0.0115 0.143305 0.0129252 0 0 255
0.012 0.143305 0.0129252 0 0 255
0.0125 0.143256 0.0112746 0 0 255
0.013 0.143244 0.0108938 0 0 255
0.0135 0.143252 0.0111477 0 0 255
0.014 0.143252 0.0111477 0 0 255
0.0145 0.143256 0.0112746 0 0 255
0.015 0.143256 0.0112746 0 0 255
0.0155 0.143267 0.0116555 0 0 255
0.016 0.143263 0.0115286 0 0 255
0.0165 0.143263 0.0115286 0 0 255
0.017 0.143252 0.0111477 0 0 255
0.0175 0.143225 0.0102589 0 0 255
0.018 0.143008 0.00240219 0 0 255
0.0185 0.142984 0.00145769 0 0 255
0.019 0.142988 0.00159261 0 0 255
-0.03375 0.144466 0.0276519 0 0 255
-0.03325 0.144491 0.0285406 0 0 255
-0.03275 0.14451 0.0291754 0 0 255
-0.03225 0.144529 0.0298102 0 0 255
-0.03175 0.144543 0.0303181 0 0 255
-0.03125 0.144554 0.030699 0 0 255
-0.03075 0.144566 0.0310798 0 0 255
-0.03025 0.14458 0.0315877 0 0 255
-0.02975 0.144592 0.0319686 0 0 255
-0.02925 0.144599 0.0322225 0 0 255
-0.02875 0.144606 0.0324764 0 0 255
-0.02825 0.144618 0.0328573 0 0 255
-0.02775 0.144621 0.0329843 0 0 255
-0.02725 0.144629 0.0332382 0 0 255
-0.02675 0.144636 0.0334921 0 0 255
-0.02625 0.144643 0.0337461 0 0 255
-0.02575 0.144643 0.0337461 0 0 255
-0.02525 0.144647 0.033873 0 0 255
-0.02475 0.144655 0.0341269 0 0 255
-0.02425 0.144651 0.034 0 0 255
-0.02375 0.144647 0.033873 0 0 255
-0.02325 0.144632 0.0333652 0 0 255
-0.02275 0.144618 0.0328573 0 0 255
-0.02225 0.144621 0.0329843 0 0 255
-0.02175 0.144625 0.0331112 0 0 255
-0.02125 0.144629 0.0332382 0 0 255
-0.02075 0.144636 0.0334921 0 0 255
-0.02025 0.144647 0.033873 0 0 255
-0.01975 0.144655 0.0341269 0 0 255
-0.01925 0.144666 0.0345078 0 0 255
-0.01875 0.144673 0.0347618 0 0 255
-0.01825 0.144681 0.0350157 0 0 255
-0.01775 0.144688 0.0352696 0 0 255
-0.01725 0.144692 0.0353965 0 0 255
-0.01675 0.144695 0.0355235 0 0 255
-0.01625 0.144703 0.0357774 0 0 255
-0.01575 0.144703 0.0357774 0 0 255
-0.01525 0.14471 0.0360314 0 0 255
-0.01475 0.144706 0.0359044 0 0 255
-0.01425 0.144706 0.0359044 0 0 255
-0.01375 0.144706 0.0359044 0 0 255
-0.01325 0.144703 0.0357774 0 0 255
-0.01275 0.144699 0.0356505 0 0 255
-0.01225 0.144677 0.0348887 0 0 255
-0.01175 0.144695 0.0355235 0 0 255
-0.01125 0.144714 0.0361583 0 0 255
-0.01075 0.144695 0.0355235 0 0 255
-0.01025 0.144706 0.0359044 0 0 255
-0.00975 0.14471 0.0360314 0 0 255
-0.00925 0.14471 0.0360314 0 0 255
-0.00875 0.144703 0.0357774 0 0 255
-0.00825 0.14471 0.0360314 0 0 255
-0.00775 0.144706 0.0359044 0 0 255
-0.00725 0.144695 0.0355235 0 0 255
-0.00675 0.144699 0.0356505 0 0 255
-0.00625 0.144695 0.0355235 0 0 255
-0.00575 0.144695 0.0355235 0 0 255
-0.00525 0.144688 0.0352696 0 0 255
-0.00475 0.144673 0.0347618 0 0 255
-0.00425 0.144632 0.0333652 0 0 255
-0.00375 0.144551 0.030572 0 0 255
-0.00325 0.144551 0.030572 0 0 255
-0.00275 0.144543 0.0303181 0 0 255
-0.00225 0.144532 0.0299372 0 0 255
-0.00175 0.144514 0.0293024 0 0 255
-0.00125 0.144488 0.0284136 0 0 255
-0.00075 0.144477 0.0280327 0 0 255
-0.00025 0.144462 0.0275249 0 0 255
0.00025 0.144447 0.0270171 0 0 255
0.00075 0.144421 0.0261283 0 0 255
0.00125 0.144417 0.0260014 0 0 255
0.00175 0.144421 0.0261283 0 0 255
0.00225 0.144421 0.0261283 0 0 255
0.00275 0.144421 0.0261283 0 0 255
0.00325 0.144417 0.0260014 0 0 255
0.00375 0.14441 0.0257474 0 0 255
0.00425 0.144402 0.0254935 0 0 255
0.00475 0.144395 0.0252396 0 0 255
0.00525 0.144373 0.0244778 0 0 255
0.00575 0.144362 0.0240969 0 0 255
0.00625 0.144328 0.0229543 0 0 255
0.00675 0.14428 0.0213038 0 0 255
0.00725 0.144265 0.0207959 0 0 255
0.00775 0.144228 0.0195263 0 0 255
0.00825 0.144202 0.0186376 0 0 255
0.00875 0.144184 0.0180028 0 0 255
0.00925 0.144165 0.017368 0 0 255
0.00975 0.144124 0.0159714 0 0 255
0.01025 0.144106 0.0153365 0 0 255
0.01075 0.144076 0.0143208 0 0 255
0.01125 0.144017 0.0122895 0 0 255
0.01175 0.144006 0.0119086 0 0 255
0.01225 0.14401 0.0120355 0 0 255
0.01275 0.143946 0.00987719 0 0 255
0.01325 0.14395 0.0100042 0 0 255
0.01375 0.143958 0.0102581 0 0 255
0.01425 0.143961 0.010385 0 0 255
0.01475 0.143965 0.010512 0 0 255
0.01525 0.143972 0.0107659 0 0 255
0.01575 0.143969 0.0106389 0 0 255
0.01625 0.143972 0.0107659 0 0 255
0.01675 0.143961 0.010385 0 0 255
0.01725 0.143924 0.00911542 0 0 255
0.01775 0.143745 0.00240137 0 0 255
-0.034 0.14517 0.027016 0 0 255
-0.0335 0.145206 0.0282856 0 0 255
-0.033 0.145225 0.0289204 0 0 255
-0.0325 0.145243 0.0295552 0 0 255
-0.032 0.145257 0.030063 0 0 255
-0.0315 0.145272 0.0305709 0 0 255
-0.031 0.145279 0.0308248 0 0 255
-0.0305 0.14529 0.0312057 0 0 255
-0.03 0.145305 0.0317135 0 0 255
-0.0295 0.145316 0.0320944 0 0 255
-0.029 0.145323 0.0323483 0 0 255
-0.0285 0.145334 0.0327292 0 0 255
-0.028 0.145341 0.0329831 0 0 255
-0.0275 0.145348 0.033237 0 0 255
-0.027 0.145356 0.0334909 0 0 255
-0.0265 0.145363 0.0337449 0 0 255
-0.026 0.145366 0.0338718 0 0 255
-0.0255 0.145374 0.0341258 0 0 255
-0.025 0.145377 0.0342527 0 0 255
-0.0245 0.145377 0.0342527 0 0 255
-0.024 0.14537 0.0339988 0 0 255
-0.0235 0.145363 0.0337449 0 0 255
-0.023 0.145356 0.0334909 0 0 255
-0.0225 0.145359 0.0336179 0 0 255
-0.022 0.145359 0.0336179 0 0 255
-0.0215 0.145363 0.0337449 0 0 255
-0.021 0.14537 0.0339988 0 0 255
-0.0205 0.145377 0.0342527 0 0 255
-0.02 0.145385 0.0345066 0 0 255
-0.0195 0.145392 0.0347606 0 0 255
-0.019 0.145399 0.0350145 0 0 255
-0.0185 0.145403 0.0351414 0 0 255
-0.018 0.145414 0.0355223 0 0 255
-0.0175 0.145417 0.0356493 0 0 255
-0.017 0.145428 0.0360301 0 0 255
-0.0165 0.145432 0.0361571 0 0 255
-0.016 0.145436 0.0362841 0 0 255
-0.0155 0.145439 0.036411 0 0 255
-0.015 0.14545 0.0367919 0 0 255
-0.0145 0.145461 0.0371728 0 0 255
-0.014 0.145465 0.0372997 0 0 255
-0.0135 0.145476 0.0376806 0 0 255
-0.013 0.145472 0.0375537 0 0 255
-0.0125 0.145472 0.0375537 0 0 255
-0.012 0.145468 0.0374267 0 0 255
-0.0115 0.145476 0.0376806 0 0 255
-0.011 0.145465 0.0372997 0 0 255
-0.0105 0.145461 0.0371728 0 0 255
-0.01 0.145461 0.0371728 0 0 255
-0.0095 0.145465 0.0372997 0 0 255
-0.009 0.145465 0.0372997 0 0 255
-0.0085 0.145461 0.0371728 0 0 255
-0.008 0.145454 0.0369189 0 0 255
-0.0075 0.145461 0.0371728 0 0 255
-0.007 0.145454 0.0369189 0 0 255
-0.0065 0.145446 0.0366649 0 0 255
-0.006 0.145436 0.0362841 0 0 255
-0.0055 0.145428 0.0360301 0 0 255
-0.005 0.145421 0.0357762 0 0 255
-0.0045 0.14541 0.0353953 0 0 255
-0.004 0.145399 0.0350145 0 0 255
-0.0035 0.145396 0.0348875 0 0 255
-0.003 0.14537 0.0339988 0 0 255
-0.0025 0.145366 0.0338718 0 0 255
-0.002 0.145254 0.029936 0 0 255
-0.0015 0.145239 0.0294282 0 0 255
-0.001 0.145221 0.0287934 0 0 255
-0.0005 0.14521 0.0284125 0 0 255
0.0 0.145192 0.0277777 0 0 255
0.0005 0.145174 0.0271429 0 0 255
0.001 0.145145 0.0261272 0 0 255
0.0015 0.145148 0.0262542 0 0 255
0.002 0.145152 0.0263812 0 0 255
0.0025 0.145152 0.0263812 0 0 255
0.003 0.145152 0.0263812 0 0 255
0.0035 0.145148 0.0262542 0 0 255
0.004 0.145141 0.0260003 0 0 255
0.0045 0.145126 0.0254924 0 0 255
0.005 0.145112 0.0249846 0 0 255
0.0055 0.145083 0.0239689 0 0 255
0.006 0.145057 0.0230802 0 0 255
0.0065 0.145035 0.0223185 0 0 255
0.007 0.145003 0.0211758 0 0 255
0.0075 0.144963 0.0197792 0 0 255
0.008 0.144934 0.0187636 0 0 255
0.0085 0.144905 0.0177479 0 0 255
0.009 0.14489 0.01724 0 0 255
0.0095 0.144875 0.0167322 0 0 255
0.01 0.144843 0.0155895 0 0 255
0.0105 0.144814 0.0145739 0 0 255
0.011 0.14473 0.0116538 0 0 255
0.0115 0.14473 0.0116538 0 0 255
0.012 0.144719 0.0112729 0 0 255
0.0125 0.144654 0.00898762 0 0 255
0.013 0.144657 0.00911459 0 0 255
0.0135 0.144661 0.00924153 0 0 255
0.014 0.144672 0.00962242 0 0 255
0.0145 0.144675 0.00974937 0 0 255
0.015 0.144675 0.00974937 0 0 255
0.0155 0.144675 0.00974937 0 0 255
0.016 0.144675 0.00974937 0 0 255
0.0165 0.144617 0.00771802 0 0 255
0.017 0.144632 0.00822586 0 0 255
-0.03375 0.145907 0.0275227 0 0 255
-0.03325 0.145936 0.0285384 0 0 255
-0.03275 0.145954 0.0291732 0 0 255
-0.03225 0.145968 0.029681 0 0 255
-0.03175 0.145989 0.0304428 0 0 255
-0.03125 0.145997 0.0306967 0 0 255
-0.03075 0.146007 0.0310775 0 0 255
-0.03025 0.146022 0.0315854 0 0 255
-0.02975 0.146036 0.0320932 0 0 255
-0.02925 0.146054 0.032728 0 0 255
-0.02875 0.146057 0.032855 0 0 255
-0.02825 0.146061 0.0329819 0 0 255
-0.02775 0.146064 0.0331089 0 0 255
-0.02725 0.146072 0.0333628 0 0 255
-0.02675 0.146079 0.0336167 0 0 255
-0.02625 0.146086 0.0338706 0 0 255
-0.02575 0.146093 0.0341245 0 0 255
-0.02525 0.146096 0.0342515 0 0 255
-0.02475 0.1461 0.0343785 0 0 255
-0.02425 0.146096 0.0342515 0 0 255
-0.02375 0.146089 0.0339976 0 0 255
-0.02325 0.146082 0.0337437 0 0 255
-0.02275 0.146082 0.0337437 0 0 255
-0.02225 0.146086 0.0338706 0 0 255
-0.02175 0.146093 0.0341245 0 0 255
-0.02125 0.1461 0.0343785 0 0 255
-0.02075 0.146104 0.0345054 0 0 255
-0.02025 0.146111 0.0347594 0 0 255
-0.01975 0.146118 0.0350133 0 0 255
-0.01925 0.146125 0.0352672 0 0 255
-0.01875 0.146132 0.0355211 0 0 255
-0.01825 0.146136 0.0356481 0 0 255
-0.01775 0.146143 0.035902 0 0 255
-0.01725 0.14615 0.0361559 0 0 255
-0.01675 0.146161 0.0365368 0 0 255
-0.01625 0.146175 0.0370446 0 0 255
-0.01575 0.146182 0.0372985 0 0 255
-0.01525 0.146186 0.0374255 0 0 255
-0.01475 0.146193 0.0376794 0 0 255
-0.01425 0.1462 0.0379333 0 0 255
-0.01375 0.146203 0.0380603 0 0 255
-0.01325 0.146211 0.0383142 0 0 255
-0.01275 0.146214 0.0384411 0 0 255
-0.01225 0.146211 0.0383142 0 0 255
-0.01175 0.146214 0.0384411 0 0 255
-0.01125 0.146214 0.0384411 0 0 255
-0.01075 0.146214 0.0384411 0 0 255
-0.01025 0.146211 0.0383142 0 0 255
-0.00975 0.146207 0.0381872 0 0 255
-0.00925 0.146211 0.0383142 0 0 255
-0.00875 0.146207 0.0381872 0 0 255
-0.00825 0.146211 0.0383142 0 0 255
-0.00775 0.146196 0.0378064 0 0 255
-0.00725 0.146196 0.0378064 0 0 255
-0.00675 0.146196 0.0378064 0 0 255
-0.00625 0.146182 0.0372985 0 0 255
-0.00575 0.146164 0.0366637 0 0 255
-0.00525 0.146161 0.0365368 0 0 255
-0.00475 0.146154 0.0362828 0 0 255
-0.00425 0.146139 0.035775 0 0 255
-0.00375 0.146132 0.0355211 0 0 255
-0.00325 0.146129 0.0353941 0 0 255
-0.00275 0.146118 0.0350133 0 0 255
-0.00225 0.146107 0.0346324 0 0 255
-0.00175 0.146057 0.032855 0 0 255
-0.00125 0.146043 0.0323471 0 0 255
-0.00075 0.146036 0.0320932 0 0 255
-0.00025 0.146032 0.0319663 0 0 255
0.00025 0.145918 0.0279036 0 0 255
0.00075 0.145897 0.0271418 0 0 255
0.00125 0.145882 0.026634 0 0 255
0.00175 0.145886 0.026761 0 0 255
0.00225 0.145886 0.026761 0 0 255
0.00275 0.145879 0.0265071 0 0 255
0.00325 0.145882 0.026634 0 0 255
0.00375 0.145875 0.0263801 0 0 255
0.00425 0.145857 0.0257453 0 0 255
0.00475 0.14584 0.0251105 0 0 255
0.00525 0.14579 0.0233331 0 0 255
0.00575 0.145775 0.0228253 0 0 255
0.00625 0.145761 0.0223174 0 0 255
0.00675 0.145736 0.0214287 0 0 255
0.00725 0.145725 0.0210478 0 0 255
0.00775 0.145679 0.0193974 0 0 255
0.00825 0.145658 0.0186356 0 0 255
0.00875 0.145604 0.0167312 0 0 255
0.00925 0.145601 0.0166043 0 0 255
0.00975 0.145572 0.0155886 0 0 255
0.01025 0.145558 0.0150808 0 0 255
0.01075 0.145483 0.0124146 0 0 255
0.01125 0.145383 0.00885981 0 0 255
0.01175 0.145351 0.0077172 0 0 255
0.01225 0.145362 0.00809807 0 0 255
0.01275 0.145365 0.00822504 0 0 255
0.01325 0.145372 0.00847895 0 0 255
0.01375 0.145376 0.00860591 0 0 255
0.01425 0.145379 0.00873286 0 0 255
0.01475 0.145376 0.00860591 0 0 255
0.01525 0.145376 0.00860591 0 0 255
0.01575 0.145362 0.00809807 0 0 255
-0.041 0.146343 0.0171112 0 0 255
-0.033 0.146718 0.0306955 0 0 255
-0.0325 0.146728 0.0310764 0 0 255
-0.032 0.146749 0.0318381 0 0 255
-0.0315 0.146763 0.032346 0 0 255
-0.031 0.14677 0.0325999 0 0 255
-0.0305 0.146781 0.0329808 0 0 255
-0.03 0.146791 0.0333616 0 0 255
-0.0295 0.146798 0.0336155 0 0 255
-0.029 0.146805 0.0338695 0 0 255
-0.0285 0.146809 0.0339964 0 0 255
-0.028 0.146802 0.0337425 0 0 255
-0.0275 0.146798 0.0336155 0 0 255
-0.027 0.146798 0.0336155 0 0 255
-0.0265 0.146802 0.0337425 0 0 255
-0.026 0.146809 0.0339964 0 0 255
-0.0255 0.146812 0.0341233 0 0 255
-0.025 0.146816 0.0342503 0 0 255
-0.0245 0.146816 0.0342503 0 0 255
-0.024 0.146812 0.0341233 0 0 255
-0.0235 0.146809 0.0339964 0 0 255
-0.023 0.146809 0.0339964 0 0 255
-0.0225 0.146812 0.0341233 0 0 255
-0.022 0.146816 0.0342503 0 0 255
-0.0215 0.146823 0.0345042 0 0 255
-0.021 0.14683 0.0347582 0 0 255
-0.0205 0.146833 0.0348851 0 0 255
-0.02 0.14684 0.035139 0 0 255
-0.0195 0.146847 0.0353929 0 0 255
-0.019 0.146858 0.0357738 0 0 255
-0.0185 0.146865 0.0360277 0 0 255
-0.018 0.146872 0.0362816 0 0 255
-0.0175 0.146882 0.0366625 0 0 255
-0.017 0.146896 0.0371703 0 0 255
-0.0165 0.146903 0.0374242 0 0 255
-0.016 0.146914 0.0378051 0 0 255
-0.0155 0.146917 0.0379321 0 0 255
-0.015 0.146921 0.038059 0 0 255
-0.0145 0.146924 0.038186 0 0 255
-0.014 0.146927 0.0383129 0 0 255
-0.0135 0.146934 0.0385668 0 0 255
-0.013 0.146941 0.0388208 0 0 255
-0.0125 0.146941 0.0388208 0 0 255
-0.012 0.146945 0.0389477 0 0 255
-0.0115 0.146952 0.0392016 0 0 255
-0.011 0.146948 0.0390747 0 0 255
-0.0105 0.146948 0.0390747 0 0 255
-0.01 0.146945 0.0389477 0 0 255
-0.0095 0.146945 0.0389477 0 0 255
-0.009 0.146938 0.0386938 0 0 255
-0.0085 0.146938 0.0386938 0 0 255
-0.008 0.146941 0.0388208 0 0 255
-0.0075 0.146934 0.0385668 0 0 255
-0.007 0.146934 0.0385668 0 0 255
-0.0065 0.146927 0.0383129 0 0 255
-0.006 0.146921 0.038059 0 0 255
-0.0055 0.146896 0.0371703 0 0 255
-0.005 0.146896 0.0371703 0 0 255
-0.0045 0.146882 0.0366625 0 0 255
-0.004 0.146872 0.0362816 0 0 255
-0.0035 0.146861 0.0359008 0 0 255
-0.003 0.146854 0.0356468 0 0 255
-0.0025 0.146847 0.0353929 0 0 255
-0.002 0.14684 0.035139 0 0 255
-0.0015 0.146833 0.0348851 0 0 255
-0.001 0.146777 0.0328538 0 0 255
-0.0005 0.146767 0.0324729 0 0 255
0.0 0.146767 0.0324729 0 0 255
0.0005 0.146756 0.032092 0 0 255
0.001 0.146616 0.0270138 0 0 255
0.0015 0.146616 0.0270138 0 0 255
0.002 0.14662 0.0271407 0 0 255
0.0025 0.146609 0.0267599 0 0 255
0.003 0.146606 0.0266329 0 0 255
0.0035 0.146602 0.026506 0 0 255
0.004 0.146592 0.0261251 0 0 255
0.0045 0.146571 0.0253633 0 0 255
0.005 0.146497 0.0226973 0 0 255
0.0055 0.14649 0.0224434 0 0 255
0.006 0.146476 0.0219355 0 0 255
0.0065 0.146466 0.0215546 0 0 255
0.007 0.146448 0.0209199 0 0 255
0.0075 0.146427 0.0201581 0 0 255
0.008 0.146396 0.0190155 0 0 255
0.0085 0.146326 0.0164764 0 0 255
0.009 0.146319 0.0162225 0 0 255
0.0095 0.146301 0.0155877 0 0 255
0.01 0.146287 0.0150799 0 0 255
0.0105 0.146242 0.0134294 0 0 255
0.011 0.146018 0.00509751 0 0 255
0.0115 0.146046 0.00631189 0 0 255
0.012 0.14606 0.00682769 0 0 255
0.0125 0.146067 0.0070816 0 0 255
0.013 0.146074 0.00733551 0 0 255
0.0135 0.146078 0.00746246 0 0 255
0.014 0.146074 0.00733551 0 0 255
0.0145 0.146081 0.00758942 0 0 255
0.015 0.146053 0.00657377 0 0 255
-0.04225 0.147065 0.0168563 0 0 255
-0.04125 0.147099 0.0181258 0 0 255
-0.04075 0.147113 0.0186337 0 0 255
-0.03375 0.147432 0.0304405 0 0 255
-0.03325 0.147449 0.0310752 0 0 255
-0.03275 0.147463 0.0315831 0 0 255
-0.03225 0.147476 0.0320909 0 0 255
-0.03175 0.14749 0.0325987 0 0 255
-0.03125 0.1475 0.0329796 0 0 255
-0.03075 0.147511 0.0333604 0 0 255
-0.03025 0.147518 0.0336143 0 0 255
-0.02975 0.147524 0.0338683 0 0 255
-0.02925 0.147531 0.0341222 0 0 255
-0.02875 0.147535 0.0342491 0 0 255
-0.02825 0.147538 0.0343761 0 0 255
-0.02775 0.147538 0.0343761 0 0 255
-0.02725 0.147535 0.0342491 0 0 255
-0.02675 0.147535 0.0342491 0 0 255
-0.02625 0.147531 0.0341222 0 0 255
-0.02575 0.147528 0.0339952 0 0 255
-0.02525 0.147528 0.0339952 0 0 255
-0.02475 0.147528 0.0339952 0 0 255
-0.02425 0.147524 0.0338683 0 0 255
-0.02375 0.147528 0.0339952 0 0 255
-0.02325 0.147531 0.0341222 0 0 255
-0.02275 0.147535 0.0342491 0 0 255
-0.02225 0.147542 0.034503 0 0 255
-0.02175 0.147545 0.03463 0 0 255
-0.02125 0.147552 0.0348839 0 0 255
-0.02075 0.147559 0.0351378 0 0 255
-0.02025 0.147566 0.0353917 0 0 255
-0.01975 0.147572 0.0356456 0 0 255
-0.01925 0.147576 0.0357726 0 0 255
