-0.0355 0.1802303 0.04598254
-0.035 0.18023047 0.04623628
-0.0345 0.18023047 0.04623628
-0.034 0.18023047 0.04623628
-0.0335 0.1802303 0.04598254
-0.033 0.1802303 0.04598254
-0.0325 0.18023014 0.04572877
-0.032 0.18022844 0.04319131
-0.0315 0.18022853 0.0433182
-0.031 0.18022862 0.04344505
-0.0305 0.18022844 0.04319131
-0.03 0.18022828 0.04293758
-0.0295 0.18022794 0.04243009
-0.029 0.18022618 0.03976575
-0.0285 0.180226 0.03951199
-0.028 0.18022399 0.03646703
-0.0275 0.18022399 0.03646703
-0.0135 0.18021175 0.01807038
-0.013 0.18021251 0.01921222
-0.0125 0.18021302 0.01997347
-0.012 0.18021345 0.02060783
-0.0115 0.18021387 0.02124221
-0.011 0.18021429 0.02187658
-0.0105 0.18021463 0.02238408
-0.01 0.18021496 0.02289155
-0.0095 0.1802153 0.02339905
-0.009 0.18021546 0.02365281
0.011 0.18007927 0.0582405
0.0115 0.18006606 0.05908054
0.012 0.18005475 0.05980057
0.0125 0.18004343 0.06052062
0.013 0.18003401 0.06112064
0.0135 0.18002269 0.06184068
0.014 0.18001515 0.06232069
0.0145 0.18000761 0.06280072
0.015 0.17999819 0.06340076
0.0155 0.17999063 0.06388079
0.016 0.17998309 0.06436081
0.0165 0.17997745 0.06472082
0.017 0.17997178 0.06508084
0.0175 0.17996801 0.06532086
0.018 0.17996235 0.06568088
0.0185 0.17996047 0.06580088
0.019 0.17995858 0.06592087
0.0195 0.17995858 0.06592087
0.02 0.1799567 0.06604089
0.0205 0.17995481 0.0661609
0.021 0.17995481 0.0661609
0.0215 0.17994916 0.06652091
0.022 0.17994916 0.06652091
0.0225 0.17994727 0.06664093
0.023 0.17994161 0.06700094
0.0235 0.17993973 0.06712094
0.024 0.17994161 0.06700094
0.0245 0.17993973 0.06712094
0.025 0.17994161 0.06700094
0.0255 0.17994539 0.06676093
0.026 0.17994727 0.06664093
0.0265 0.17994539 0.06676093
0.027 0.1799435 0.06688093
0.0275 0.17995481 0.0661609
0.028 0.17996047 0.06580088
0.0285 0.17996235 0.06568088
0.029 0.17996801 0.06532086
0.0295 0.17999253 0.06376077
0.03 0.17999063 0.06388079
0.0305 0.18002458 0.06172067
-0.05925 0.18082374 0.05643888
-0.05875 0.18080802 0.05739896
-0.05825 0.18080214 0.05775899
-0.05775 0.1807982 0.057999
-0.05725 0.18079427 0.05823904
-0.05675 0.18078838 0.05859907
-0.05625 0.18078053 0.05907911
-0.05575 0.18076874 0.05979916
-0.05525 0.18075891 0.06039922
-0.05475 0.18075499 0.06063923
-0.05425 0.18074909 0.06099929
-0.05375 0.1807432 0.06135932
-0.05325 0.1807373 0.06171934
-0.05275 0.18073338 0.06195936
-0.05225 0.18073338 0.06195936
-0.05175 0.18072945 0.06219937
-0.05125 0.18072945 0.06219937
-0.05075 0.18073142 0.06207937
-0.05025 0.18072748 0.06231938
-0.04975 0.18072551 0.0624394
-0.04925 0.18072945 0.06219937
-0.04875 0.1807373 0.06171934
-0.04825 0.18074124 0.06147932
-0.04775 0.18073927 0.06159931
-0.04725 0.18074909 0.06099929
-0.04675 0.1807432 0.06135932
-0.04625 0.18074124 0.06147932
-0.04575 0.1807373 0.06171934
-0.04525 0.18073533 0.06183936
-0.04475 0.18073533 0.06183936
-0.04425 0.18073533 0.06183936
-0.04375 0.1807432 0.06135932
-0.04325 0.18074124 0.06147932
-0.04275 0.18073927 0.06159931
-0.04225 0.1807373 0.06171934
-0.04175 0.18073533 0.06183936
-0.04125 0.18073338 0.06195936
-0.04075 0.18073533 0.06183936
-0.04025 0.18074124 0.06147932
-0.03975 0.18074517 0.06123929
-0.03925 0.18075499 0.06063923
-0.03875 0.18079427 0.05823904
-0.03825 0.18080214 0.05775899
-0.03775 0.18080802 0.05739896
-0.03725 0.1808041 0.05763899
-0.03675 0.18083356 0.05583882
-0.03625 0.18095332 0.04724948
-0.03575 0.1809532 0.04534641
-0.03525 0.1809532 0.04547329
-0.03475 0.18095319 0.04521956
-0.03425 0.18095317 0.0449658
-0.03375 0.18095316 0.04471207
-0.03325 0.18095316 0.04458518
-0.03275 0.18095303 0.04255523
-0.03225 0.18095306 0.04293586
-0.03175 0.18095306 0.04306272
-0.03125 0.18095307 0.0431896
-0.03075 0.18095306 0.04306272
-0.03025 0.18095304 0.04268211
-0.02975 0.1809528 0.03874909
-0.02925 0.18095256 0.03494293
-0.02875 0.18095258 0.03532355
-0.01325 0.18095158 0.01895711
-0.01275 0.18095164 0.0198452
-0.01225 0.18095167 0.0203527
-0.01175 0.18095171 0.02124079
-0.01125 0.18095174 0.02174829
-0.01075 0.18095179 0.02225577
-0.01025 0.18095182 0.02276326
-0.00975 0.18095185 0.02327075
-0.00925 0.18095188 0.02377822
0.01075 0.18080214 0.05775899
0.01125 0.18078445 0.0588391
0.01175 0.18077266 0.05955915
0.01225 0.18076088 0.06027921
0.01275 0.18075302 0.06075925
0.01325 0.18073927 0.06159931
0.01375 0.18072945 0.06219937
0.01425 0.18071963 0.06279942
0.01475 0.18070981 0.06339948
0.01525 0.18070194 0.06387952
0.01575 0.18069606 0.06423955
0.01625 0.18068819 0.06471959
0.01675 0.18068427 0.0649596
0.01725 0.18067837 0.06531964
0.01775 0.1806764 0.06543964
0.01825 0.18067445 0.06555966
0.01875 0.18067051 0.06579968
0.01925 0.18066855 0.06591968
0.01975 0.18066658 0.0660397
0.02025 0.18066461 0.06615973
0.02075 0.18066266 0.06627971
0.02125 0.18066266 0.06627971
0.02175 0.18065873 0.06651974
0.02225 0.18065873 0.06651974
0.02275 0.18065479 0.06675977
0.02325 0.18065479 0.06675977
0.02375 0.18065479 0.06675977
0.02425 0.18065283 0.06687978
0.02475 0.18065676 0.06663977
0.02525 0.18066069 0.06639974
0.02575 0.18066069 0.06639974
0.02625 0.18065873 0.06651974
0.02675 0.18065873 0.06651974
0.02725 0.18066855 0.06591968
0.02775 0.18067051 0.06579968
0.02825 0.18067248 0.06567967
0.02875 0.18067837 0.06531964
0.02925 0.18067837 0.06531964
0.02975 0.18070391 0.06375951
0.03025 0.18069997 0.06399953
-0.0595 0.18154198 0.05631734
-0.059 0.18152563 0.05727747
-0.0585 0.18151541 0.05787754
-0.058 0.18150929 0.05823758
-0.0575 0.18151133 0.05811757
-0.057 0.18150315 0.05859762
-0.0565 0.18147454 0.06027782
-0.056 0.18146841 0.06063786
-0.0555 0.18146433 0.0608779
-0.055 0.18146229 0.06099792
-0.0545 0.18145819 0.06123793
-0.054 0.18145615 0.06135796
-0.0535 0.18145002 0.061718
-0.053 0.18144593 0.06195803
-0.0525 0.18144593 0.06195803
-0.052 0.18144388 0.06207804
-0.0515 0.1814398 0.06231806
-0.051 0.18143776 0.06243809
-0.0505 0.18143776 0.06243809
-0.05 0.18143572 0.0625581
-0.0495 0.18143368 0.06267811
-0.049 0.18143776 0.06243809
-0.0485 0.18145002 0.061718
-0.048 0.18145207 0.06159797
-0.0475 0.18145207 0.06159797
-0.047 0.18145207 0.06159797
-0.0465 0.18145002 0.061718
-0.046 0.18145207 0.06159797
-0.0455 0.18144798 0.06183802
-0.045 0.18144798 0.06183802
-0.0445 0.18144798 0.06183802
-0.044 0.18144798 0.06183802
-0.0435 0.18145002 0.061718
-0.043 0.18144593 0.06195803
-0.0425 0.18144388 0.06207804
-0.042 0.18144184 0.06219806
-0.0415 0.1814398 0.06231806
-0.041 0.1814398 0.06231806
-0.0405 0.18144388 0.06207804
-0.04 0.18144798 0.06183802
-0.0395 0.18145207 0.06159797
-0.039 0.18147863 0.06003781
-0.0385 0.18148068 0.05991778
-0.038 0.18147863 0.06003781
-0.0375 0.18147045 0.06051786
-0.037 0.18150723 0.0583576
-0.0365 0.18167561 0.04699397
-0.036 0.181677 0.04445657
-0.0355 0.18167685 0.04471032
-0.035 0.18167685 0.04471032
-0.0345 0.18167692 0.04458344
-0.034 0.181677 0.04445657
-0.0335 0.181677 0.04445657
-0.033 0.18167706 0.0443297
-0.0325 0.18167824 0.04217291
-0.032 0.18167803 0.04255351
-0.0315 0.18167795 0.0426804
-0.031 0.18168125 0.03659063
-0.03 0.18168242 0.03443385
-0.013 0.18169039 0.01971694
-0.0125 0.18168998 0.02047817
-0.012 0.18168963 0.02111252
-0.0115 0.18168929 0.02174687
-0.011 0.18168902 0.02225435
-0.0105 0.18168874 0.02276183
-0.01 0.18168853 0.02314243
-0.0095 0.18168826 0.02364992
-0.009 0.18168806 0.02403052
0.0115 0.18149292 0.05919769
0.012 0.18147863 0.06003781
0.0125 0.18146637 0.06075788
0.013 0.18145411 0.06147796
0.0135 0.18144184 0.06219806
0.014 0.18143164 0.06279813
0.0145 0.18142346 0.06327818
0.015 0.18141529 0.06375824
0.0155 0.18140915 0.06411828
0.016 0.18140303 0.06447834
0.0165 0.18139689 0.06483838
0.017 0.1813928 0.06507839
0.0175 0.18138872 0.06531844
0.018 0.18138668 0.06543843
0.0185 0.18138464 0.06555846
0.019 0.18138054 0.06579849
0.0195 0.1813785 0.06591851
0.02 0.18137646 0.06603852
0.0205 0.18137442 0.06615855
0.021 0.18137237 0.06627855
0.0215 0.18137237 0.06627855
0.022 0.18137033 0.06639856
0.0225 0.18136829 0.06651857
0.023 0.18136829 0.06651857
0.0235 0.18136829 0.06651857
0.024 0.18136624 0.0666386
0.0245 0.18136829 0.06651857
0.025 0.18137442 0.06615855
0.0255 0.18137442 0.06615855
0.026 0.18137442 0.06615855
0.0265 0.18137442 0.06615855
0.027 0.18138258 0.06567848
0.0275 0.18138872 0.06531844
0.028 0.18138872 0.06531844
0.0285 0.1813928 0.06507839
0.029 0.18139689 0.06483838
0.0295 0.18142958 0.06291814
0.03 0.18142346 0.06327818
-0.05925 0.18224551 0.05703594
-0.05875 0.18223277 0.05775604
-0.05825 0.18222216 0.05835614
-0.05725 0.18220094 0.05955634
-0.05675 0.18218397 0.06051649
-0.05625 0.18217759 0.06087653
-0.05575 0.18217123 0.06123659
-0.05525 0.18217123 0.06123659
-0.05475 0.18216911 0.06135662
-0.05425 0.18216698 0.06147662
-0.05375 0.18216273 0.06171666
-0.05325 0.18215849 0.0619567
-0.05275 0.18215637 0.06207672
-0.05225 0.18215425 0.06219673
-0.05175 0.18215212 0.06231675
-0.05125 0.18215001 0.06243677
-0.05075 0.18214788 0.0625568
-0.05025 0.18214788 0.0625568
-0.04975 0.18214363 0.06279682
-0.04925 0.18214151 0.06291685
-0.04875 0.18215212 0.06231675
-0.04825 0.18215637 0.06207672
-0.04775 0.18215425 0.06219673
-0.04725 0.18215212 0.06231675
-0.04675 0.18215212 0.06231675
-0.04625 0.18215212 0.06231675
-0.04575 0.18215637 0.06207672
-0.04525 0.18215212 0.06231675
-0.04475 0.18215001 0.06243677
-0.04425 0.18214576 0.06267682
-0.04375 0.18214788 0.0625568
-0.04325 0.18215001 0.06243677
-0.04275 0.18215212 0.06231675
-0.04225 0.18215001 0.06243677
-0.04175 0.18215001 0.06243677
-0.04125 0.18214788 0.0625568
-0.04075 0.18215212 0.06231675
-0.04025 0.18215425 0.06219673
-0.03975 0.18216062 0.06183669
-0.03925 0.18217334 0.06111656
-0.03875 0.18217759 0.06087653
-0.03825 0.18217759 0.06087653
-0.03775 0.18218184 0.06063649
-0.03725 0.18218184 0.06063649
-0.03675 0.18221155 0.05895622
-0.03625 0.18221579 0.05871621
-0.03575 0.1824017 0.04369362
-0.03525 0.18240157 0.04382049
-0.03475 0.18240157 0.04382049
-0.03425 0.18240127 0.04407422
-0.03375 0.18240127 0.04407422
-0.03325 0.18240504 0.04077566
-0.03275 0.18240446 0.04128312
-0.01325 0.18242958 0.01933495
-0.01275 0.18242842 0.0203499
-0.01225 0.18242741 0.02123797
-0.01175 0.18242683 0.02174545
-0.01125 0.1824261 0.0223798
-0.01075 0.18242566 0.0227604
-0.01025 0.18242523 0.023141
-0.00975 0.1824248 0.0235216
-0.00925 0.18242435 0.0239022
0.01125 0.18220519 0.05931628
0.01175 0.18219033 0.0601564
0.01225 0.18217759 0.06087653
0.01275 0.18216698 0.06147662
0.01325 0.18215637 0.06207672
0.01375 0.18214788 0.0625568
0.01425 0.18213727 0.0631569
0.01475 0.18212877 0.06363694
0.01525 0.18212241 0.06399703
0.01575 0.18211392 0.0644771
0.01625 0.18210755 0.06483716
0.01675 0.18210544 0.06495716
0.01725 0.18209694 0.06543723
0.01775 0.18208422 0.06615736
0.01825 0.18208422 0.06615736
0.01875 0.18208422 0.06615736
0.01925 0.18208422 0.06615736
0.01975 0.18208422 0.06615736
0.02025 0.18208209 0.06627737
0.02075 0.18207997 0.0663974
0.02125 0.18207997 0.0663974
0.02175 0.18208209 0.06627737
0.02225 0.18207997 0.0663974
0.02275 0.18208209 0.06627737
0.02325 0.18208209 0.06627737
0.02375 0.18208209 0.06627737
0.02425 0.18208209 0.06627737
0.02475 0.18208845 0.06591731
0.02525 0.18209058 0.0657973
0.02575 0.18208845 0.06591731
0.02625 0.18209694 0.06543723
0.02675 0.18209907 0.06531723
0.02725 0.18210544 0.06495716
0.02775 0.18210755 0.06483716
0.02825 0.18210755 0.06483716
0.02875 0.18213302 0.06339693
0.02925 0.18215849 0.0619567
-0.059 0.1829569 0.05727448
-0.0585 0.18294591 0.05787461
-0.057 0.18290408 0.06015502
-0.0565 0.18289088 0.06087516
-0.056 0.18288426 0.06123523
-0.0555 0.18287987 0.06147528
-0.055 0.18287987 0.06147528
-0.0545 0.18287987 0.06147528
-0.054 0.18287326 0.06183535
-0.0535 0.18286885 0.06207539
-0.053 0.18286225 0.06243546
-0.0525 0.18285786 0.06267551
-0.052 0.18285786 0.06267551
-0.0515 0.18285786 0.06267551
-0.051 0.18285786 0.06267551
-0.0505 0.18285786 0.06267551
-0.05 0.18285786 0.06267551
-0.0495 0.18285786 0.06267551
-0.049 0.18286225 0.06243546
-0.0485 0.18286225 0.06243546
-0.048 0.18286225 0.06243546
-0.0475 0.18286005 0.06255549
-0.047 0.18285786 0.06267551
-0.0465 0.18285565 0.06279552
-0.046 0.18285125 0.06303558
-0.0455 0.18285125 0.06303558
-0.045 0.18284684 0.06327562
-0.0445 0.18284464 0.06339565
-0.044 0.18284464 0.06339565
-0.0435 0.18284684 0.06327562
-0.043 0.18284684 0.06327562
-0.0425 0.18286005 0.06255549
-0.042 0.18285786 0.06267551
-0.0415 0.18285786 0.06267551
-0.041 0.18285565 0.06279552
-0.0405 0.18285786 0.06267551
-0.04 0.18286005 0.06255549
-0.0395 0.18286225 0.06243546
-0.039 0.18287766 0.06159529
-0.0385 0.18288426 0.06123523
-0.038 0.18288207 0.06135526
-0.0375 0.18289307 0.06075513
-0.037 0.18292388 0.05907482
-0.0365 0.18291949 0.05931486
-0.036 0.18292609 0.05895479
-0.0355 0.18296571 0.05679438
-0.035 0.1829569 0.05727448
-0.0345 0.18313311 0.03963217
-0.034 0.18313289 0.03975904
-0.013 0.18316747 0.0199679
-0.0125 0.18316592 0.02085597
-0.012 0.18316437 0.02174403
-0.0115 0.18316348 0.02225149
-0.011 0.1831626 0.02275896
-0.0105 0.18316193 0.02313956
-0.01 0.18316127 0.02352016
-0.0095 0.1831606 0.02390075
0.011 0.18292388 0.05907482
0.0115 0.18290848 0.05991498
0.012 0.18289527 0.06063512
0.0125 0.18288426 0.06123523
0.013 0.18287326 0.06183535
0.0135 0.18286666 0.06219542
0.014 0.18285565 0.06279552
0.0145 0.18284684 0.06327562
0.015 0.18284024 0.06363568
0.0155 0.18280722 0.06543602
0.016 0.18279842 0.06591612
0.0165 0.18279181 0.06627619
0.017 0.18278961 0.06639622
0.0175 0.18278301 0.06675628
0.018 0.1827742 0.06723638
0.0185 0.1827742 0.06723638
0.019 0.18277861 0.06699635
0.0195 0.1827808 0.06687631
0.02 0.1827808 0.06687631
0.0205 0.18277641 0.06711635
0.021 0.182772 0.06735641
0.0215 0.18276981 0.06747644
0.022 0.1827742 0.06723638
0.0225 0.18278742 0.06651624
0.023 0.18279181 0.06627619
0.0235 0.18279402 0.06615618
0.024 0.18279621 0.06603615
0.0245 0.18280283 0.06567608
0.025 0.18280502 0.06555606
0.0255 0.18280722 0.06543602
0.026 0.18281382 0.06507596
0.0265 0.18281603 0.06495593
0.027 0.18281823 0.06483594
0.0275 0.18282042 0.06471591
0.028 0.18282263 0.06459586
0.0285 0.18284464 0.06339565
0.029 0.18284684 0.06327562
0.0295 0.18290848 0.05991498
-0.05775 0.18364745 0.05859329
-0.05725 0.18363149 0.05943348
-0.05675 0.18361098 0.06051373
-0.05625 0.18360186 0.06099384
-0.05575 0.1835973 0.06123388
-0.05525 0.18359502 0.06135392
-0.05475 0.18359274 0.06147394
-0.05425 0.1835859 0.06183402
-0.05375 0.18357906 0.06219409
-0.05325 0.1835745 0.06243415
-0.05275 0.18356766 0.06279422
-0.05225 0.18356766 0.06279422
-0.05175 0.18356766 0.06279422
-0.05125 0.18356538 0.06291427
-0.05075 0.18356538 0.06291427
-0.05025 0.18356766 0.06279422
-0.04975 0.18356538 0.06291427
-0.04925 0.18356766 0.06279422
-0.04875 0.18357222 0.06255418
-0.04825 0.18357222 0.06255418
-0.04775 0.18357222 0.06255418
-0.04725 0.18356766 0.06279422
-0.04675 0.18356538 0.06291427
-0.04625 0.18356082 0.06315432
-0.04575 0.18355854 0.06327434
-0.04525 0.18355398 0.0635144
-0.04475 0.18354942 0.06375445
-0.04425 0.18354714 0.06387448
-0.04375 0.18354942 0.06375445
-0.04325 0.18354942 0.06375445
-0.04275 0.1835517 0.06363441
-0.04225 0.1835631 0.06303428
-0.04175 0.1835631 0.06303428
-0.04125 0.18355854 0.06327434
-0.04075 0.18355854 0.06327434
-0.04025 0.18356082 0.06315432
-0.03975 0.1835631 0.06303428
-0.03925 0.18356538 0.06291427
-0.03875 0.18357222 0.06255418
-0.03825 0.18359274 0.06147394
-0.03775 0.18359502 0.06135392
-0.03725 0.18360414 0.06087381
-0.03675 0.18363605 0.05919342
-0.03625 0.18363149 0.05943348
-0.03575 0.18363833 0.0590734
-0.03525 0.18367255 0.05727299
-0.03475 0.18366571 0.05763307
-0.01275 0.1839052 0.0203471
-0.01225 0.18390311 0.02123515
-0.01175 0.18390132 0.02199633
-0.01125 0.18390012 0.02250379
-0.01075 0.18389922 0.02288438
-0.01025 0.18389803 0.02339184
-0.00975 0.18389744 0.02364558
0.01225 0.1835517 0.06363441
0.01275 0.18353802 0.0643546
0.01325 0.18353346 0.06459463
0.01375 0.18352662 0.06495471
0.01425 0.18352434 0.06507474
0.01475 0.18351749 0.06543483
0.01525 0.18351065 0.06579491
0.01575 0.18350609 0.06603496
0.01625 0.18349697 0.06651507
0.01675 0.18349469 0.06663512
0.01725 0.18348785 0.06699519
0.01775 0.18348329 0.06723525
0.01825 0.18348101 0.06735526
0.01875 0.18348101 0.06735526
0.01925 0.18348329 0.06723525
0.01975 0.18348101 0.06735526
0.02025 0.18347873 0.0674753
0.02075 0.18347417 0.06771535
0.02125 0.18347189 0.06783538
0.02175 0.18347189 0.06783538
0.02225 0.18347873 0.0674753
0.02275 0.18349241 0.06675513
0.02325 0.18349013 0.06687516
0.02375 0.18349469 0.06663512
0.02425 0.18349469 0.06663512
0.02475 0.18351749 0.06543483
0.02525 0.18352205 0.06519479
0.02575 0.18352434 0.06507474
0.02625 0.1835289 0.06483471
0.02675 0.18353118 0.06471467
0.02725 0.18354486 0.06399451
0.02775 0.1835517 0.06363441
0.02825 0.1835631 0.06303428
0.02875 0.1836087 0.06063373
0.02925 0.18362466 0.05979355
0.02975 0.18364517 0.05871332
-0.058 0.18435986 0.05871187
-0.0575 0.18434808 0.05931202
-0.057 0.18433864 0.05979215
-0.0565 0.18432449 0.06051235
-0.056 0.18431741 0.06087244
-0.0555 0.18431269 0.06111249
-0.055 0.18430561 0.06147258
-0.0545 0.18430325 0.06159261
-0.054 0.18429382 0.06207274
-0.0535 0.18428674 0.06243284
-0.053 0.18428202 0.06267291
-0.0525 0.18427967 0.06279293
-0.052 0.1842773 0.06291297
-0.0515 0.18427494 0.063033
-0.051 0.18427022 0.06327306
-0.0505 0.18426551 0.06351313
-0.05 0.18426551 0.06351313
-0.0495 0.18426786 0.0633931
-0.049 0.18427022 0.06327306
-0.0485 0.1842773 0.06291297
-0.048 0.18427967 0.06279293
-0.0475 0.18427967 0.06279293
-0.047 0.1842773 0.06291297
-0.0465 0.18427259 0.06315304
-0.046 0.18426551 0.06351313
-0.0455 0.18426315 0.06363314
-0.045 0.18425843 0.06387322
-0.0445 0.18425371 0.06411327
-0.044 0.18425371 0.06411327
-0.0435 0.18425371 0.06411327
-0.043 0.18425608 0.06399326
-0.0425 0.18426315 0.06363314
-0.042 0.18426551 0.06351313
-0.0415 0.18426551 0.06351313
-0.041 0.18426315 0.06363314
-0.0405 0.18426551 0.06351313
-0.04 0.18426551 0.06351313
-0.0395 0.18427022 0.06327306
-0.039 0.18427259 0.06315304
-0.0385 0.1842891 0.0623128
-0.038 0.18429853 0.0618327
-0.0375 0.18429853 0.0618327
-0.037 0.18430325 0.06159261
-0.0365 0.184341 0.05967213
-0.036 0.18433627 0.05991219
-0.0355 0.18434808 0.05931202
-0.035 0.18437639 0.05787165
-0.0345 0.184433 0.05499089
-0.012 0.1846402 0.02148745
-0.0115 0.18463871 0.02199491
-0.011 0.1846372 0.02250236
-0.0105 0.18463609 0.02288294
0.012 0.18425371 0.06411327
0.0125 0.18424428 0.06459339
0.013 0.1842372 0.06495349
0.0135 0.18423484 0.06507352
0.014 0.18423012 0.06531361
0.0145 0.18422776 0.06543362
0.015 0.18422069 0.06579372
0.0155 0.18421361 0.06615382
0.016 0.18420888 0.06639388
0.0165 0.18420418 0.06663395
0.017 0.1841971 0.06699404
0.0175 0.18419237 0.0672341
0.018 0.18418765 0.06747416
0.0185 0.18418765 0.06747416
0.019 0.18418765 0.06747416
0.0195 0.18418765 0.06747416
0.02 0.1841853 0.06759419
0.0205 0.18418059 0.06783426
0.021 0.18418059 0.06783426
0.0215 0.18418294 0.06771421
0.022 0.1841853 0.06759419
0.0225 0.18419237 0.0672341
0.023 0.18419473 0.06711406
0.0235 0.18419473 0.06711406
0.024 0.1841971 0.06699404
0.0245 0.1841971 0.06699404
0.025 0.18422776 0.06543362
0.0255 0.18422776 0.06543362
0.026 0.18422776 0.06543362
0.0265 0.18423484 0.06507352
0.027 0.18425608 0.06399326
0.0275 0.18427022 0.06327306
0.028 0.18427494 0.063033
0.0285 0.18431504 0.06099248
0.029 0.18431504 0.06099248
0.0295 0.18437639 0.05787165
-0.05825 0.185077 0.0585904
-0.05775 0.18506236 0.0593106
-0.05725 0.18505505 0.05967072
-0.05675 0.1850453 0.06015085
-0.05625 0.18503799 0.06051098
-0.05575 0.18502335 0.06123117
-0.05525 0.18501116 0.06183136
-0.05475 0.18500386 0.06219146
-0.05425 0.18499655 0.06255157
-0.05375 0.18499167 0.06279163
-0.05325 0.18498923 0.06291167
-0.05275 0.18498923 0.06291167
-0.05225 0.18498436 0.06315176
-0.05175 0.18497948 0.06339182
-0.05125 0.18497704 0.06351185
-0.05075 0.18497217 0.06375192
-0.05025 0.18496972 0.06387196
-0.04975 0.18496972 0.06387196
-0.04925 0.18497217 0.06375192
-0.04875 0.1849746 0.06363188
-0.04825 0.18498191 0.06327178
-0.04775 0.18498191 0.06327178
-0.04725 0.18497704 0.06351185
-0.04675 0.18497217 0.06375192
-0.04625 0.1849746 0.06363188
-0.04575 0.18496972 0.06387196
-0.04525 0.18496728 0.06399201
-0.04475 0.18496241 0.06423207
-0.04425 0.18495998 0.06435211
-0.04375 0.18495998 0.06435211
-0.04325 0.18496241 0.06423207
-0.04275 0.18496728 0.06399201
-0.04225 0.18497217 0.06375192
-0.04175 0.18497217 0.06375192
-0.04125 0.18497217 0.06375192
-0.04075 0.18497217 0.06375192
-0.04025 0.18497217 0.06375192
-0.03975 0.1849746 0.06363188
-0.03925 0.18497704 0.06351185
-0.03875 0.18498191 0.06327178
-0.03825 0.18499655 0.06255157
-0.03775 0.18499897 0.06243153
-0.03725 0.18500386 0.06219146
-0.03675 0.18500873 0.06195138
-0.03625 0.18504286 0.06027089
-0.03575 0.18503799 0.06051098
-0.03525 0.18506236 0.0593106
-0.03475 0.18505993 0.05943064
-0.03425 0.1850965 0.05763011
0.01175 0.18496972 0.06387196
0.01225 0.18495509 0.06459215
0.01275 0.18494779 0.06495227
0.01325 0.1849429 0.06519236
0.01375 0.18493803 0.06543241
0.01425 0.18493316 0.06567249
0.01475 0.18492097 0.06627266
0.01525 0.18490633 0.06699289
0.01575 0.1849039 0.06711291
0.01625 0.18490146 0.06723295
0.01675 0.18490146 0.06723295
0.01725 0.18489902 0.067353
0.01775 0.18489659 0.06747302
0.01825 0.18488927 0.06783314
0.01875 0.18488196 0.06819324
0.01925 0.18488196 0.06819324
0.01975 0.1848844 0.0680732
0.02025 0.18488927 0.06783314
0.02075 0.18488683 0.06795315
0.02125 0.18488683 0.06795315
0.02175 0.18488927 0.06783314
0.02225 0.18489414 0.06759305
0.02275 0.18490146 0.06723295
0.02325 0.18490146 0.06723295
0.02375 0.18490633 0.06699289
0.02425 0.18490633 0.06699289
0.02475 0.18491122 0.06675281
0.02525 0.18493071 0.06579253
0.02575 0.18492828 0.06591256
0.02625 0.18493071 0.06579253
0.02675 0.18494047 0.06531239
0.02725 0.18494047 0.06531239
0.02775 0.18497948 0.06339182
0.02825 0.18497948 0.06339182
0.02875 0.18498679 0.0630317
0.02925 0.18499167 0.06279163
0.02975 0.18504286 0.06027089
-0.059 0.18582197 0.05714846
-0.0585 0.18579932 0.05822884
-0.058 0.18578169 0.05906911
-0.0575 0.18576911 0.05966932
-0.057 0.18575904 0.06014945
-0.0565 0.18574898 0.06062962
-0.056 0.18573387 0.06134987
-0.0555 0.18572129 0.06195006
-0.055 0.18571122 0.06243022
-0.0545 0.18570618 0.06267031
-0.054 0.18569864 0.06303042
-0.0535 0.18569613 0.06315047
-0.053 0.18569361 0.06327049
-0.0525 0.18569361 0.06327049
-0.052 0.18568857 0.06351058
-0.0515 0.18568605 0.06363061
-0.051 0.18568102 0.0638707
-0.0505 0.18568102 0.0638707
-0.05 0.1856785 0.06399074
-0.0495 0.1856785 0.06399074
-0.049 0.18568102 0.0638707
-0.0485 0.18568605 0.06363061
-0.048 0.18568605 0.06363061
-0.0475 0.18568353 0.06375065
-0.047 0.18568102 0.0638707
-0.0465 0.18567599 0.06411077
-0.046 0.1856785 0.06399074
-0.0455 0.18567096 0.06435086
-0.045 0.18567096 0.06435086
-0.0445 0.18567348 0.06423081
-0.044 0.18566844 0.0644709
-0.0435 0.18566844 0.0644709
-0.043 0.18566844 0.0644709
-0.0425 0.18567096 0.06435086
-0.042 0.18567348 0.06423081
-0.0415 0.18568353 0.06375065
-0.041 0.18568102 0.0638707
-0.0405 0.18568102 0.0638707
-0.04 0.18568353 0.06375065
-0.0395 0.18568857 0.06351058
-0.039 0.18569109 0.06339054
-0.0385 0.18569864 0.06303042
-0.038 0.18570116 0.06291038
-0.0375 0.18570367 0.06279033
-0.037 0.18571374 0.06231017
-0.0365 0.18571626 0.06219013
-0.036 0.18574898 0.06062962
-0.0355 0.1857515 0.06050959
-0.035 0.18576911 0.05966932
-0.0345 0.18576911 0.05966932
-0.034 0.18579932 0.05822884
0.0105 0.18572381 0.06183003
0.011 0.18568857 0.06351058
0.0115 0.1856785 0.06399074
0.012 0.18566844 0.0644709
0.0125 0.18566088 0.06483103
0.013 0.18565333 0.06519115
0.0135 0.18564579 0.06555125
0.014 0.18563572 0.06603141
0.0145 0.18562062 0.06675164
0.015 0.18561055 0.06723182
0.0155 0.18560551 0.06747189
0.016 0.18560047 0.06771196
0.0165 0.18559797 0.06783202
0.017 0.18559797 0.06783202
0.0175 0.18559293 0.06807208
0.018 0.18559545 0.06795205
0.0185 0.1855879 0.06831217
0.019 0.18558286 0.06855224
0.0195 0.18558286 0.06855224
0.02 0.1855879 0.06831217
0.0205 0.18559293 0.06807208
0.021 0.1855879 0.06831217
0.0215 0.18558538 0.0684322
0.022 0.18558286 0.06855224
0.0225 0.18558286 0.06855224
0.023 0.18559545 0.06795205
0.0235 0.18561055 0.06723182
0.024 0.18562062 0.06675164
0.0245 0.1856181 0.06687169
0.025 0.18562816 0.06639153
0.0255 0.18563572 0.06603141
0.026 0.18563823 0.06591137
0.0265 0.18564327 0.06567129
0.027 0.18565081 0.06531118
0.0275 0.18568353 0.06375065
0.028 0.18568605 0.06363061
0.0285 0.18568857 0.06351058
0.029 0.18569361 0.06327049
0.0295 0.18569864 0.06303042
0.03 0.1857515 0.06050959
0.0305 0.18574898 0.06062962
-0.05975 0.18655846 0.05618662
-0.05925 0.18653768 0.05714697
-0.05875 0.1865247 0.05774719
-0.05825 0.18650395 0.05870755
-0.05775 0.18648838 0.0594278
-0.05725 0.18647279 0.06014806
-0.05675 0.18646242 0.06062824
-0.05625 0.18645203 0.06110843
-0.05575 0.18643646 0.06182869
-0.05525 0.18642348 0.06242891
-0.05475 0.18641569 0.06278904
-0.05425 0.1864105 0.06302913
-0.05375 0.18640271 0.06338927
-0.05325 0.18640012 0.06350932
-0.05275 0.18640012 0.06350932
-0.05225 0.18639752 0.06362934
-0.05175 0.18639752 0.06362934
-0.05125 0.18639752 0.06362934
-0.05075 0.18639232 0.06386943
-0.05025 0.18639232 0.06386943
-0.04975 0.18639491 0.06374939
-0.04925 0.18639491 0.06374939
-0.04875 0.18639491 0.06374939
-0.04825 0.18639491 0.06374939
-0.04775 0.18638973 0.06398949
-0.04725 0.18638973 0.06398949
-0.04675 0.18638454 0.06422956
-0.04625 0.18637416 0.06470975
-0.04575 0.18636896 0.06494983
-0.04525 0.18636636 0.06506987
-0.04475 0.18636896 0.06494983
-0.04425 0.18637934 0.06446967
-0.04375 0.18637416 0.06470975
-0.04325 0.18637416 0.06470975
-0.04275 0.18637156 0.0648298
-0.04225 0.18637156 0.0648298
-0.04175 0.18637675 0.06458969
-0.04125 0.18638454 0.06422956
-0.04075 0.18638454 0.06422956
-0.04025 0.18638454 0.06422956
-0.03975 0.18639232 0.06386943
-0.03925 0.18639491 0.06374939
-0.03875 0.1864053 0.06326921
-0.03825 0.1864105 0.06302913
-0.03775 0.1864105 0.06302913
-0.03725 0.18641828 0.06266899
-0.03675 0.18642867 0.06218882
-0.03625 0.18644944 0.06122847
-0.03575 0.18645981 0.06074828
-0.03525 0.18647279 0.06014806
-0.03475 0.18648577 0.05954786
-0.03425 0.18651693 0.05810733
-0.03375 0.18650654 0.05858749
0.00975 0.18640789 0.06314918
0.01025 0.18639491 0.06374939
0.01075 0.18638454 0.06422956
0.01125 0.18637934 0.06446967
0.01175 0.18637675 0.06458969
0.01225 0.18637156 0.0648298
0.01275 0.18636118 0.06530997
0.01325 0.18635079 0.06579013
0.01375 0.186343 0.06615028
0.01425 0.18633522 0.06651041
0.01475 0.18632224 0.06711061
0.01525 0.18631445 0.06747076
0.01575 0.18630926 0.06771085
0.01625 0.18630666 0.06783089
0.01675 0.18630666 0.06783089
0.01725 0.18630406 0.06795093
0.01775 0.18630147 0.06807096
0.01825 0.18629628 0.06831107
0.01875 0.18629108 0.06855115
0.01925 0.18628849 0.06867121
0.01975 0.18629369 0.06843109
0.02025 0.18629628 0.06831107
0.02075 0.18629108 0.06855115
0.02125 0.1862859 0.06879126
0.02175 0.1862859 0.06879126
0.02225 0.18628331 0.06891128
0.02275 0.1862859 0.06879126
0.02325 0.18629108 0.06855115
0.02375 0.18631704 0.06735072
0.02425 0.18633002 0.0667505
0.02475 0.18632743 0.06687054
0.02525 0.18632743 0.06687054
0.02575 0.18634561 0.06603022
0.02625 0.18635079 0.06579013
0.02675 0.18636377 0.06518993
0.02725 0.18636636 0.06506987
0.02775 0.18638973 0.06398949
0.02825 0.18639752 0.06362934
0.02875 0.18640012 0.06350932
0.02925 0.18641309 0.06290908
0.02975 0.1864702 0.06026812
0.03025 0.18646501 0.06050822
-0.0595 0.18726945 0.05642518
-0.059 0.18725073 0.05726552
-0.058 0.18720259 0.05942638
-0.0575 0.18718386 0.06026673
-0.057 0.18717049 0.06086697
-0.0565 0.18715711 0.0614672
-0.056 0.18715176 0.06170732
-0.0555 0.18713839 0.06230754
-0.055 0.18712769 0.06278773
-0.0545 0.18711966 0.0631479
-0.054 0.18711431 0.06338799
-0.0535 0.18710896 0.06362806
-0.053 0.1871063 0.06374814
-0.0525 0.18710896 0.06362806
-0.052 0.1871063 0.06374814
-0.0515 0.18710896 0.06362806
-0.051 0.18710361 0.06386818
-0.0505 0.1871063 0.06374814
-0.05 0.18710896 0.06362806
-0.0495 0.1871063 0.06374814
-0.049 0.18710361 0.06386818
-0.0485 0.18709826 0.06410827
-0.048 0.18709292 0.06434837
-0.0475 0.18708757 0.06458846
-0.047 0.1870849 0.06470852
-0.0465 0.18707955 0.0649486
-0.046 0.18707152 0.06530876
-0.0455 0.18706885 0.06542879
-0.045 0.18706885 0.06542879
-0.0445 0.18706885 0.06542879
-0.044 0.18707687 0.06506865
-0.0435 0.18707955 0.0649486
-0.043 0.18707955 0.0649486
-0.0425 0.18707955 0.0649486
-0.042 0.18708222 0.06482857
-0.0415 0.18708757 0.06458846
-0.041 0.18708757 0.06458846
-0.0405 0.18708222 0.06482857
-0.04 0.18708222 0.06482857
-0.0395 0.18709025 0.06446843
-0.039 0.1870956 0.06422831
-0.0385 0.187117 0.06326793
-0.038 0.18712234 0.06302784
-0.0375 0.18711966 0.0631479
-0.037 0.18713036 0.0626677
-0.0365 0.18713839 0.06230754
-0.036 0.18715176 0.06170732
-0.0355 0.18716514 0.06110707
-0.035 0.18717584 0.06062686
-0.0345 0.18722399 0.058466
-0.034 0.18722399 0.058466
-0.0335 0.1872213 0.05858605
0.0095 0.18711165 0.06350803
0.01 0.18709826 0.06410827
0.0105 0.18709025 0.06446843
0.011 0.18708222 0.06482857
0.0115 0.1870742 0.06518872
0.012 0.18706885 0.06542879
0.0125 0.18706082 0.06578894
0.013 0.1870528 0.0661491
0.0135 0.18705012 0.06626913
0.014 0.18704745 0.06638919
0.0145 0.18703675 0.06686938
0.015 0.1870314 0.06710947
0.0155 0.18702337 0.06746963
0.016 0.18701802 0.06770971
0.0165 0.18701535 0.06782977
0.017 0.18701267 0.06794982
0.0175 0.18700732 0.06818992
0.018 0.18700466 0.06830996
0.0185 0.18700197 0.06842999
0.019 0.18699931 0.06855005
0.0195 0.18700197 0.06842999
0.02 0.18700197 0.06842999
0.0205 0.18699931 0.06855005
0.021 0.18699396 0.06879017
0.0215 0.18699129 0.0689102
0.022 0.18699129 0.0689102
0.0225 0.18699129 0.0689102
0.023 0.18699662 0.06867011
0.0235 0.18700197 0.06842999
0.024 0.18703407 0.06698944
0.0245 0.18703675 0.06686938
0.025 0.18703675 0.06686938
0.0255 0.18704477 0.06650923
0.026 0.18705012 0.06626913
0.0265 0.18705547 0.06602904
0.027 0.18707687 0.06506865
0.0275 0.18708222 0.06482857
0.028 0.1870956 0.06422831
0.0285 0.1871063 0.06374814
0.029 0.18713839 0.06230754
0.0295 0.18714909 0.06182736
0.03 0.18717049 0.06086697
0.0305 0.18716514 0.06110707
-0.05825 0.1879113 0.05966508
-0.05775 0.18789202 0.06050546
-0.05725 0.18788101 0.06098567
-0.05675 0.18787275 0.06134583
-0.05625 0.18786173 0.06182604
-0.05575 0.18785623 0.06206612
-0.05525 0.18784522 0.06254634
-0.05475 0.18783145 0.06314662
-0.05425 0.18782593 0.06338671
-0.05375 0.18782043 0.0636268
-0.05325 0.18781768 0.06374687
-0.05275 0.18781492 0.06386691
-0.05225 0.18781216 0.06398699
-0.05175 0.18781216 0.06398699
-0.05125 0.18780667 0.06422707
-0.05075 0.18780667 0.06422707
-0.05025 0.18780941 0.06410702
-0.04975 0.18781216 0.06398699
-0.04925 0.18780941 0.06410702
-0.04875 0.18780667 0.06422707
-0.04825 0.18780115 0.06446718
-0.04775 0.18779564 0.06470728
-0.04725 0.18778738 0.06506744
-0.04675 0.18778463 0.0651875
-0.04625 0.18777637 0.06554765
-0.04575 0.18777362 0.0656677
-0.04525 0.18777086 0.06578775
-0.04475 0.18777086 0.06578775
-0.04425 0.18777362 0.0656677
-0.04375 0.18777913 0.06542759
-0.04325 0.18778187 0.06530756
-0.04275 0.18778463 0.0651875
-0.04225 0.18778463 0.0651875
-0.04175 0.18779014 0.06494738
-0.04125 0.18778738 0.06506744
-0.04075 0.18779014 0.06494738
-0.04025 0.18778738 0.06506744
-0.03975 0.18779014 0.06494738
-0.03925 0.1877984 0.06458722
-0.03875 0.18780391 0.06434713
-0.03825 0.18782593 0.06338671
-0.03775 0.18783145 0.06314662
-0.03725 0.18783145 0.06314662
-0.03675 0.18783419 0.06302655
-0.03625 0.18784796 0.06242628
-0.03575 0.18785623 0.06206612
-0.03525 0.18787825 0.06110571
-0.03475 0.18787825 0.06110571
-0.03425 0.18791956 0.05930492
-0.03375 0.18792781 0.05894476
-0.03325 0.18795535 0.05774423
0.00775 0.18786724 0.06158592
0.00925 0.18782318 0.06350677
0.00975 0.18780667 0.06422707
0.01025 0.18779564 0.06470728
0.01075 0.18778738 0.06506744
0.01125 0.18778187 0.06530756
0.01175 0.18777362 0.0656677
0.01225 0.18776812 0.06590781
0.01275 0.1877626 0.06614792
0.01325 0.18775709 0.06638803
0.01375 0.18775709 0.06638803
0.01425 0.18774883 0.06674817
0.01475 0.18774058 0.06710832
0.01525 0.18773782 0.06722839
0.01575 0.18773231 0.06746849
0.01625 0.18772405 0.06782866
0.01675 0.1877158 0.0681888
0.01725 0.18771029 0.0684289
0.01775 0.18771029 0.0684289
0.01825 0.18770753 0.06854896
0.01875 0.18770477 0.06866902
0.01925 0.18770477 0.06866902
0.01975 0.18770477 0.06866902
0.02025 0.18770477 0.06866902
0.02075 0.18770753 0.06854896
0.02125 0.18770477 0.06866902
0.02175 0.18770203 0.06878908
0.02225 0.18769927 0.06890911
0.02275 0.18770477 0.06866902
0.02325 0.18771029 0.0684289
0.02375 0.18772957 0.06758854
0.02425 0.18774608 0.06686823
0.02475 0.18774883 0.06674817
0.02525 0.18774883 0.06674817
0.02575 0.18775159 0.06662814
0.02625 0.18775435 0.06650807
0.02675 0.18775985 0.06626795
0.02725 0.1877984 0.06458722
0.02775 0.18779564 0.06470728
0.02825 0.1877984 0.06458722
0.02875 0.18780115 0.06446718
0.02925 0.18785623 0.06206612
0.02975 0.18785623 0.06206612
0.03025 0.18786173 0.06182604
0.03075 0.18786724 0.06158592
0.03125 0.18786724 0.06158592
-0.0585 0.1886197 0.05990379
-0.058 0.1886027 0.06062412
-0.0575 0.18858854 0.0612244
-0.057 0.18858288 0.06146452
-0.0565 0.1885772 0.06170464
-0.056 0.18856871 0.06206481
-0.0555 0.18856305 0.06230491
-0.055 0.18855172 0.06278513
-0.0545 0.18854322 0.06314532
-0.054 0.18853472 0.06350549
-0.0535 0.18853189 0.06362553
-0.053 0.18852623 0.06386566
-0.0525 0.18852057 0.06410576
-0.052 0.18851489 0.0643459
-0.0515 0.18851206 0.06446594
-0.051 0.18851206 0.06446594
-0.0505 0.18850923 0.06458598
-0.05 0.18851206 0.06446594
-0.0495 0.18851773 0.06422582
-0.049 0.18851489 0.0643459
-0.0485 0.18851206 0.06446594
-0.048 0.18850923 0.06458598
-0.0475 0.1884979 0.06506622
-0.047 0.18849224 0.06530634
-0.0465 0.18848658 0.06554645
-0.046 0.1884809 0.06578656
-0.0455 0.18847807 0.06590661
-0.045 0.18847524 0.06602667
-0.0445 0.18847807 0.06590661
-0.044 0.18848373 0.06566651
-0.0435 0.18848373 0.06566651
-0.043 0.18848373 0.06566651
-0.0425 0.18848373 0.06566651
-0.042 0.18849507 0.06518629
-0.0415 0.18849507 0.06518629
-0.041 0.18849507 0.06518629
-0.0405 0.1884979 0.06506622
-0.04 0.1884979 0.06506622
-0.0395 0.18850356 0.06482612
-0.039 0.18850923 0.06458598
-0.0385 0.18852906 0.0637456
-0.038 0.18854038 0.06326537
-0.0375 0.18854322 0.06314532
-0.037 0.18854322 0.06314532
-0.0365 0.18854889 0.06290521
-0.036 0.18856022 0.06242497
-0.0355 0.18856871 0.06206481
-0.035 0.18858571 0.06134447
-0.0345 0.1886282 0.05954362
-0.034 0.18862537 0.05966368
-0.0335 0.18866785 0.05786283
-0.033 0.18866785 0.05786283
0.0075 0.18856588 0.06218486
0.008 0.18855172 0.06278513
0.0085 0.18854889 0.06290521
0.009 0.18853472 0.06350549
0.0095 0.18851206 0.06446594
0.01 0.18850356 0.06482612
0.0105 0.18849507 0.06518629
0.011 0.18849224 0.06530634
0.0115 0.18848658 0.06554645
0.012 0.1884809 0.06578656
0.0125 0.18847524 0.06602667
0.013 0.18846674 0.06638685
0.0135 0.18846108 0.06662697
0.014 0.18845542 0.06686707
0.0145 0.18844408 0.0673473
0.015 0.18844125 0.06746736
0.0155 0.18843842 0.06758741
0.016 0.18843275 0.06782754
0.0165 0.18842992 0.06794758
0.017 0.18842143 0.06830776
0.0175 0.18841575 0.06854786
0.018 0.18841292 0.06866793
0.0185 0.18840726 0.06890804
0.019 0.18840159 0.06914815
0.0195 0.18839876 0.0692682
0.02 0.18839876 0.0692682
0.0205 0.18840443 0.06902809
0.021 0.18841575 0.06854786
0.0215 0.1884186 0.0684278
0.022 0.18842143 0.06830776
0.0225 0.18842143 0.06830776
0.023 0.18842992 0.06794758
0.0235 0.18843558 0.06770746
0.024 0.18844125 0.06746736
0.0245 0.18845542 0.06686707
0.025 0.18845542 0.06686707
0.0255 0.18845825 0.06674701
0.026 0.18845825 0.06674701
0.0265 0.18846674 0.06638685
0.027 0.18846957 0.06626678
0.0275 0.18850639 0.06470606
0.028 0.18850356 0.06482612
0.0285 0.18850639 0.06470606
0.029 0.18851489 0.0643459
0.0295 0.18856588 0.06218486
0.03 0.18856305 0.06230491
0.0305 0.18857437 0.06182469
0.031 0.1885772 0.06170464
-0.05825 0.18931904 0.06050271
-0.05775 0.18930449 0.061103
-0.05725 0.18929283 0.06158324
-0.05675 0.18928702 0.06182337
-0.05625 0.1892841 0.06194343
-0.05575 0.18927537 0.0623036
-0.05525 0.1892579 0.06302397
-0.05475 0.18925208 0.06326409
-0.05425 0.18924625 0.06350422
-0.05375 0.18924043 0.06374434
-0.05325 0.18923752 0.0638644
-0.05275 0.18922879 0.06422457
-0.05225 0.18922296 0.0644647
-0.05175 0.18922006 0.06458475
-0.05125 0.18922006 0.06458475
-0.05075 0.18921714 0.06470482
-0.05025 0.18922006 0.06458475
-0.04975 0.18922296 0.0644647
-0.04925 0.18922587 0.06434464
-0.04875 0.18922006 0.06458475
-0.04825 0.18921714 0.06470482
-0.04775 0.18920258 0.06530513
-0.04725 0.18919094 0.06578536
-0.04675 0.18919384 0.0656653
-0.04625 0.18919094 0.06578536
-0.04575 0.18918511 0.06602548
-0.04525 0.18918511 0.06602548
-0.04475 0.18918803 0.06590542
-0.04425 0.18918803 0.06590542
-0.04375 0.18919094 0.06578536
-0.04325 0.18919094 0.06578536
-0.04275 0.18919094 0.06578536
-0.04225 0.18919384 0.0656653
-0.04175 0.18920258 0.06530513
-0.04125 0.18920258 0.06530513
-0.04075 0.1892055 0.06518507
-0.04025 0.1892084 0.065065
-0.03975 0.18921132 0.06494494
-0.03925 0.18921714 0.06470482
-0.03875 0.18922587 0.06434464
-0.03825 0.18924043 0.06374434
-0.03775 0.1892579 0.06302397
-0.03725 0.1892579 0.06302397
-0.03675 0.18926081 0.06290391
-0.03625 0.18926664 0.06266379
-0.03575 0.18927537 0.0623036
-0.03525 0.1892841 0.06194343
-0.03475 0.18933068 0.06002244
-0.03425 0.1893336 0.05990238
-0.03375 0.1893336 0.05990238
-0.03325 0.18938018 0.0579814
-0.03275 0.18938018 0.0579814
0.00625 0.18929866 0.06134313
0.00675 0.1892841 0.06194343
0.00725 0.18927246 0.06242366
0.00775 0.18926664 0.06266379
0.00825 0.18925498 0.06314404
0.00875 0.18922587 0.06434464
0.00925 0.18921423 0.06482489
0.00975 0.1892055 0.06518507
0.01025 0.18920258 0.06530513
0.01075 0.18919967 0.06542517
0.01125 0.18919094 0.06578536
0.01175 0.18917929 0.0662656
0.01225 0.18917347 0.06650573
0.01275 0.18917347 0.06650573
0.01325 0.18916765 0.06674585
0.01375 0.18916473 0.06686592
0.01425 0.18915309 0.06734617
0.01475 0.18914726 0.06758629
0.01525 0.18914436 0.06770635
0.01575 0.18913853 0.06794646
0.01625 0.18913563 0.06806652
0.01675 0.18913271 0.0681866
0.01725 0.18912397 0.06854677
0.01775 0.18911815 0.0687869
0.01825 0.18910941 0.06914708
0.01875 0.18910359 0.0693872
0.01925 0.18910068 0.06950726
0.01975 0.18910068 0.06950726
0.02025 0.18910068 0.06950726
0.02075 0.18910941 0.06914708
0.02125 0.18912688 0.0684267
0.02175 0.1891298 0.06830665
0.02225 0.1891298 0.06830665
0.02275 0.18913271 0.0681866
0.02325 0.18914436 0.06770635
0.02375 0.18914726 0.06758629
0.02425 0.18914726 0.06758629
0.02475 0.18916473 0.06686592
0.02525 0.18916765 0.06674585
0.02575 0.18916765 0.06674585
0.02625 0.18917055 0.0666258
0.02675 0.18917929 0.0662656
0.02725 0.18921714 0.06470482
0.02775 0.18921423 0.06482489
0.02825 0.18921714 0.06470482
0.02875 0.18922296 0.0644647
0.02925 0.18922587 0.06434464
0.02975 0.1892812 0.06206349
0.03025 0.1892812 0.06206349
0.03075 0.18928702 0.06182337
0.03125 0.18928993 0.06170331
-0.0585 0.19004153 0.0601411
-0.058 0.19002359 0.06086151
-0.0575 0.19000864 0.06146182
-0.057 0.18999967 0.06182203
-0.0565 0.1899907 0.06218222
-0.056 0.18997276 0.06290261
-0.0555 0.1899578 0.06350295
-0.055 0.18994585 0.06398322
-0.0545 0.18993688 0.06434341
-0.054 0.18993986 0.06422332
-0.0535 0.18994285 0.06410326
-0.053 0.18993688 0.06434341
-0.0525 0.18993388 0.06446347
-0.052 0.18993089 0.06458351
-0.0515 0.18992789 0.0647036
-0.051 0.18992789 0.0647036
-0.0505 0.18992491 0.06482367
-0.05 0.18992789 0.0647036
-0.0495 0.18992491 0.06482367
-0.049 0.18991594 0.06518386
-0.0485 0.18990098 0.06578417
-0.048 0.189895 0.0660243
-0.0475 0.18988903 0.06626444
-0.047 0.18988603 0.06638451
-0.0465 0.189895 0.0660243
-0.046 0.189895 0.0660243
-0.0455 0.18989201 0.06614438
-0.045 0.18989201 0.06614438
-0.0445 0.18989201 0.06614438
-0.044 0.18988903 0.06626444
-0.0435 0.189895 0.0660243
-0.043 0.18990098 0.06578417
-0.0425 0.189898 0.06590424
-0.042 0.18990397 0.06566411
-0.0415 0.18990397 0.06566411
-0.041 0.18990397 0.06566411
-0.0405 0.18990697 0.06554405
-0.04 0.18991892 0.06506377
-0.0395 0.18992491 0.06482367
-0.039 0.18992789 0.0647036
-0.0385 0.18993089 0.06458351
-0.038 0.18993388 0.06446347
-0.0375 0.18997574 0.06278254
-0.037 0.18997276 0.06290261
-0.0365 0.18997574 0.06278254
-0.036 0.18998471 0.06242235
-0.0355 0.1899877 0.06230228
-0.035 0.18999967 0.06182203
-0.0345 0.19004752 0.05990098
-0.034 0.1900505 0.05978091
-0.0335 0.19006546 0.0591806
-0.033 0.1900834 0.05846021
0.0065 0.1899877 0.06230228
0.007 0.18997276 0.06290261
0.0075 0.18996079 0.06338288
0.008 0.18994585 0.06398322
0.0085 0.18992789 0.0647036
0.009 0.18991594 0.06518386
0.0095 0.18991295 0.06530392
0.01 0.18990397 0.06566411
0.0105 0.189895 0.0660243
0.011 0.18988903 0.06626444
0.0115 0.18988006 0.06662464
0.012 0.18987407 0.06686476
0.0125 0.18987407 0.06686476
0.013 0.18987407 0.06686476
0.0135 0.18987109 0.06698483
0.014 0.18986809 0.06710489
0.0145 0.18985912 0.0674651
0.015 0.18985613 0.06758516
0.0155 0.18984716 0.06794535
0.016 0.18984118 0.06818548
0.0165 0.18983819 0.06830555
0.017 0.18983221 0.06854567
0.0175 0.18982324 0.06890586
0.018 0.18981725 0.06914601
0.0185 0.18981127 0.06938612
0.019 0.1898053 0.06962627
0.0195 0.1898053 0.06962627
0.02 0.18980828 0.0695062
0.0205 0.18980828 0.0695062
0.021 0.18982324 0.06890586
0.0215 0.18982922 0.06866574
0.022 0.18982922 0.06866574
0.0225 0.18982622 0.06878582
0.023 0.18982922 0.06866574
0.0235 0.18984118 0.06818548
0.024 0.18986212 0.06734502
0.0245 0.18986212 0.06734502
0.025 0.18986809 0.06710489
0.0255 0.18988006 0.06662464
0.026 0.18988603 0.06638451
0.0265 0.18988903 0.06626444
0.027 0.189895 0.0660243
0.0275 0.18992192 0.06494372
0.028 0.18993388 0.06446347
0.0285 0.18994585 0.06398322
0.029 0.1899578 0.06350295
0.0295 0.18999667 0.0619421
0.03 0.18999667 0.0619421
0.0305 0.19000265 0.06170197
0.031 0.19002359 0.06086151
-0.05825 0.19074607 0.06049994
-0.05775 0.19073074 0.06110027
-0.05725 0.19071846 0.06158055
-0.05625 0.19069083 0.06266119
-0.05575 0.19066934 0.06350167
-0.05525 0.19065399 0.06410201
-0.05475 0.19064479 0.06446223
-0.05425 0.19064172 0.06458227
-0.05375 0.19064479 0.06446223
-0.05325 0.19064479 0.06446223
-0.05275 0.19064479 0.06446223
-0.05225 0.19064479 0.06446223
-0.05175 0.19063865 0.06470236
-0.05125 0.19063865 0.06470236
-0.05075 0.19063865 0.06470236
-0.05025 0.19063251 0.06494249
-0.04975 0.19062944 0.06506257
-0.04925 0.19062023 0.06542276
-0.04875 0.1906049 0.06602311
-0.04825 0.19059876 0.06626326
-0.04775 0.19059262 0.06650341
-0.04725 0.19058955 0.06662348
-0.04675 0.19058648 0.06674354
-0.04625 0.19059262 0.06650341
-0.04575 0.19059569 0.06638333
-0.04525 0.19059262 0.06650341
-0.04475 0.19058955 0.06662348
-0.04425 0.19058955 0.06662348
-0.04375 0.19058955 0.06662348
-0.04325 0.19059569 0.06638333
-0.04275 0.1906049 0.06602311
-0.04225 0.1906049 0.06602311
-0.04175 0.1906049 0.06602311
-0.04125 0.1906049 0.06602311
-0.04075 0.1906049 0.06602311
-0.04025 0.19062023 0.06542276
-0.03975 0.19062637 0.06518264
-0.03925 0.19062944 0.06506257
-0.03875 0.19063251 0.06494249
-0.03825 0.19063251 0.06494249
-0.03775 0.19063865 0.06470236
-0.03725 0.19068162 0.06302139
-0.03675 0.19067855 0.06314147
-0.03625 0.19068469 0.06290132
-0.03575 0.1906939 0.06254111
-0.03525 0.19070004 0.06230097
-0.03475 0.19071232 0.0618207
-0.03425 0.19077063 0.05953939
-0.03375 0.19077063 0.05953939
-0.03325 0.19079518 0.05857882
0.00575 0.19071846 0.06158055
0.00625 0.1906939 0.06254111
0.00675 0.19067855 0.06314147
0.00725 0.19066934 0.06350167
0.00775 0.19065399 0.06410201
0.00825 0.19063558 0.06482244
0.00875 0.1906233 0.06530271
0.00925 0.19061716 0.06554285
0.00975 0.19061409 0.06566292
0.01025 0.1906049 0.06602311
0.01075 0.19059876 0.06626326
0.01125 0.19059262 0.06650341
0.01175 0.19058341 0.0668636
0.01225 0.19058341 0.0668636
0.01275 0.19058341 0.0668636
0.01325 0.19058341 0.0668636
0.01375 0.19058341 0.0668636
0.01425 0.19057727 0.06710374
0.01475 0.19057113 0.06734389
0.01525 0.19056192 0.0677041
0.01575 0.19055885 0.06782417
0.01625 0.19055271 0.06806429
0.01675 0.19054657 0.06830445
0.01725 0.19053736 0.06866466
0.01775 0.19052815 0.06902486
0.01825 0.19052508 0.06914493
0.01875 0.19051895 0.06938507
0.01925 0.19051588 0.06950513
0.01975 0.19052202 0.06926498
0.02025 0.19052202 0.06926498
0.02075 0.19052815 0.06902486
0.02125 0.19053122 0.06890477
0.02175 0.19052815 0.06902486
0.02225 0.19053122 0.06890477
0.02275 0.19052815 0.06902486
0.02325 0.19053122 0.06890477
0.02375 0.19053736 0.06866466
0.02425 0.19057113 0.06734389
0.02475 0.19056806 0.06746395
0.02525 0.19056806 0.06746395
0.02575 0.19059262 0.06650341
0.02625 0.19059262 0.06650341
0.02675 0.19059569 0.06638333
0.02725 0.19060183 0.0661432
0.02775 0.19061409 0.06566292
0.02825 0.19066627 0.06362173
0.02875 0.19066627 0.06362173
0.02925 0.19068162 0.06302139
0.02975 0.1907246 0.06134044
0.03025 0.19072153 0.06146048
-0.0585 0.19148162 0.05965805
-0.058 0.19145644 0.06061862
-0.0575 0.19144069 0.06121899
-0.057 0.1914344 0.06145914
-0.056 0.19139346 0.0630201
-0.0555 0.19137143 0.06386061
-0.055 0.19135883 0.06434092
-0.0545 0.19135255 0.06458105
-0.054 0.19134939 0.06470113
-0.0535 0.19135255 0.06458105
-0.053 0.19135569 0.06446099
-0.0525 0.19135255 0.06458105
-0.052 0.19135255 0.06458105
-0.0515 0.19134939 0.06470113
-0.051 0.19134939 0.06470113
-0.0505 0.19134624 0.06482121
-0.05 0.19133995 0.06506135
-0.0495 0.19133365 0.06530151
-0.049 0.19131476 0.06602193
-0.0485 0.19130532 0.06638215
-0.048 0.19129588 0.06674238
-0.0475 0.19129273 0.06686245
-0.047 0.19129273 0.06686245
-0.0465 0.19129273 0.06686245
-0.046 0.19129902 0.06662232
-0.0455 0.19129902 0.06662232
-0.045 0.19129902 0.06662232
-0.0445 0.19129588 0.06674238
-0.044 0.19129588 0.06674238
-0.0435 0.19129588 0.06674238
-0.043 0.19130532 0.06638215
-0.0425 0.19130847 0.06626208
-0.042 0.19130847 0.06626208
-0.0415 0.19130847 0.06626208
-0.041 0.19131476 0.06602193
-0.0405 0.19132106 0.06578179
-0.04 0.19133365 0.06530151
-0.0395 0.19133365 0.06530151
-0.039 0.1913368 0.06518143
-0.0385 0.19133995 0.06506135
-0.038 0.1913431 0.06494127
-0.0375 0.19138718 0.06326024
-0.037 0.19138718 0.06326024
-0.0365 0.19138718 0.06326024
