0.0365087 0.05667 -0.0234721
0.036934 0.0566405 -0.0237738
0.0373725 0.0566136 -0.0240491
0.0378122 0.056587 -0.0243221
0.0382287 0.0565558 -0.0246413
0.0386009 0.056516 -0.0250481
-0.0617035 0.0658032 0.0685588
-0.0610439 0.0658159 0.0687038
-0.060359 0.0658326 0.0688935
-0.0596983 0.0658455 0.0690404
-0.0591122 0.0658469 0.0690558
-0.0586095 0.0658353 0.0689242
-0.0581618 0.0658152 0.0686957
-0.0552005 0.0661847 0.0728995
-0.054143 0.0662591 0.0737461
-0.0532935 0.0663013 0.074226
-0.0526114 0.0663175 0.0744107
-0.0520346 0.0663174 0.0744097
-0.0514984 0.0663111 0.0743372
-0.0509931 0.0662999 0.0742102
-0.0505266 0.0662827 0.0740147
-0.0500614 0.0662653 0.0738169
-0.0496153 0.066245 0.0735855
-0.0492021 0.0662196 0.073296
-0.0488127 0.0661904 0.0729646
-0.0484383 0.066159 0.0726066
-0.0480509 0.0661295 0.0722717
-0.047462 0.0661313 0.072292
-0.0462107 0.0662358 0.0734806
-0.0454383 0.066266 0.0738246
-0.0447082 0.0662897 0.0740939
-0.0441426 0.0662879 0.0740731
-0.043628 0.0662781 0.0739625
-0.0431556 0.0662619 0.0737774
-0.0427331 0.0662379 0.0735043
-0.0423429 0.0662089 0.0731743
-0.0419888 0.0661743 0.0727807
-0.0416588 0.0661359 0.0723446
-0.041375 0.0660904 0.0718268
-0.0411003 0.0660435 0.0712931
-0.0408091 0.0659992 0.0707885
-0.0404536 0.0659648 0.0703973
-0.0400233 0.065942 0.070138
-0.0395361 0.065928 0.069979
-0.0389686 0.0659265 0.0699618
-0.0366379 0.0661982 0.0730535
-0.0360171 0.066205 0.0731301
-0.0353441 0.0662198 0.0732988
-0.0332563 0.0664539 0.0759624
-0.0324868 0.0664837 0.0763011
-0.0317214 0.0665128 0.0766327
-0.03096 0.0665414 0.0769574
-0.0301295 0.0665806 0.0774036
-0.02938 0.0666073 0.0777072
-0.0286563 0.06663 0.0779653
-0.0279632 0.0666479 0.0781695
-0.0273043 0.0666606 0.0783133
-0.0266803 0.0666678 0.0783956
-0.0260744 0.0666722 0.0784459
-0.0254379 0.0666814 0.0785503
-0.0248439 0.066684 0.0785796
-0.0242365 0.0666886 0.0786326
-0.0236505 0.0666899 0.0786477
-0.0230459 0.0666942 0.0786958
-0.0224552 0.0666962 0.0787193
-0.0218713 0.0666973 0.0787309
-0.0212908 0.0666978 0.0787365
-0.0207347 0.0666945 0.0786989
-0.0201984 0.0666881 0.0786266
-0.0196616 0.0666818 0.0785552
-0.0191156 0.066677 0.0784999
-0.0185867 0.0666694 0.0784143
-0.0180462 0.0666637 0.0783493
-0.0175261 0.0666549 0.0782484
-0.0170251 0.066643 0.0781138
-0.0165295 0.0666303 0.0779696
-0.0160247 0.0666191 0.0778417
-0.0155194 0.0666079 0.0777146
-0.0150569 0.0665901 0.0775122
-0.0145789 0.0665747 0.077337
-0.0141171 0.0665568 0.0771331
-0.013642 0.066541 0.0769529
-0.0131844 0.0665224 0.0767417
-0.0127361 0.0665024 0.0765141
-0.0122884 0.0664823 0.0762855
-0.0118629 0.0664588 0.0760178
-0.0114446 0.0664341 0.0757373
-0.0110418 0.0664071 0.0754295
-0.0106649 0.066376 0.075076
-0.0103042 0.0663424 0.074694
-0.00995561 0.066307 0.0742906
-0.00962719 0.0662684 0.0738516
-0.00927594 0.0662333 0.0734529
-0.00889447 0.066203 0.0731075
-0.0085002 0.0661746 0.0727847
-0.00813075 0.0661424 0.0724181
-0.00777482 0.0661081 0.0720276
-0.00742813 0.0660723 0.0716209
-0.00709932 0.0660338 0.0711826
-0.0067453 0.0659992 0.0707888
-0.00637101 0.0659677 0.0704307
-0.00598761 0.0659376 0.0700887
-0.00560477 0.0659075 0.0697457
-0.00521172 0.0658789 0.0694207
-0.00479885 0.0658534 0.0691307
-0.00437673 0.0658294 0.0688569
-0.00385053 0.0658215 0.0687667
-0.00292844 0.0658749 0.0693746
-0.00160524 0.0659905 0.0706899
-0.00091442 0.0660081 0.0708899
-0.00020461 0.0660286 0.0711236
0.00048482 0.066046 0.0713212
0.00123618 0.0660729 0.071628
0.00202388 0.0661055 0.0719989
0.0027879 0.0661345 0.0723281
0.00356998 0.0661662 0.0726891
0.00429703 0.0661894 0.0729531
0.00499517 0.0662081 0.0731661
0.00570223 0.0662282 0.0733948
0.00637271 0.0662427 0.0735591
0.00698408 0.0662479 0.0736191
0.00757739 0.0662504 0.0736472
0.00816188 0.0662515 0.0736598
0.00874259 0.0662521 0.0736657
0.00931126 0.0662507 0.0736504
0.00985879 0.0662461 0.0735978
0.01039 0.0662389 0.0735165
0.0109202 0.0662316 0.0734334
0.0114365 0.0662222 0.0733257
0.011946 0.0662116 0.0732061
0.0124352 0.066198 0.0730506
0.0129234 0.0661842 0.0728934
0.0134555 0.0661772 0.0728136
0.0140895 0.0661859 0.0729134
0.0149668 0.0662324 0.0734424
0.0156437 0.0662478 0.0736179
0.0162011 0.0662448 0.0735827
0.0166849 0.0662303 0.0734178
0.0171104 0.0662067 0.07315
0.0174983 0.0661774 0.072816
0.0178575 0.0661435 0.0724313
0.0181141 0.0660938 0.0718656
0.0179191 0.0659741 0.0705038
0.0180234 0.0659008 0.0696696
0.0182623 0.0658483 0.0690727
0.0185012 0.0657959 0.0684758
0.0187479 0.0657446 0.0678928
0.0189798 0.0656911 0.0672838
0.019201 0.0656359 0.0666556
0.019421 0.0655805 0.0660255
0.0196308 0.0655235 0.0653774
0.0198155 0.0654627 0.064685
0.0200451 0.0654088 0.0640717
0.0200835 0.0595772 -0.00108598
0.0205575 0.0595574 -0.00129091
0.0211166 0.0595538 -0.00132712
0.0217154 0.059558 -0.00128459
0.0247437 0.0600289 0.00357626
0.0252097 0.0600075 0.00335548
0.0256392 0.0599791 0.0030622
0.0260218 0.0599417 0.00267597
0.0263692 0.0598975 0.00221981
0.0267357 0.059857 0.0018018
0.0270992 0.0598159 0.00137756
0.0274596 0.0597742 0.00094729
0.0278581 0.0597398 0.00059261
0.0283092 0.0597156 0.00034229
0.0287776 0.0596947 0.00012617
0.0292135 0.0596675 -0.00015442
0.0295997 0.0596307 -0.00053356
0.0299472 0.0595866 -0.00098928
0.0302412 0.0595321 -0.00155128
0.0303249 0.0578841 -0.018561
0.0306612 0.0578377 -0.0190391
0.0310334 0.0577983 -0.0194458
0.0314005 0.0577579 -0.019863
0.0317782 0.0577196 -0.0202589
0.0321845 0.0576867 -0.0205981
0.0326051 0.0576566 -0.0209091
0.0330424 0.0576296 -0.0211868
0.0334684 0.0576006 -0.0214869
0.0338872 0.0575701 -0.0218013
0.0343371 0.0575456 -0.0220542
0.0347648 0.0575169 -0.0223509
0.0351919 0.057488 -0.022649
0.0356218 0.0574596 -0.0229414
0.036048 0.0574306 -0.023241
0.0364829 0.0574032 -0.0235236
0.0369107 0.0573745 -0.0238202
0.0373413 0.0573463 -0.0241113
0.0377757 0.0573188 -0.0243948
0.0381961 0.0572887 -0.0247061
-0.0611847 0.0664802 0.0684559
-0.060506 0.0664958 0.0686347
-0.0598436 0.0665089 0.0687847
-0.0592267 0.066515 0.0688543
-0.0587014 0.066507 0.0687625
-0.0582472 0.066488 0.0685454
-0.0551274 0.066879 0.0730285
-0.0542442 0.066926 0.0735679
-0.0534197 0.066964 0.0740035
-0.0527179 0.0669832 0.0742231
-0.0521224 0.066986 0.0742551
-0.0515583 0.066984 0.0742318
-0.0510514 0.0669731 0.0741074
-0.050563 0.0669594 0.0739505
-0.0500779 0.0669452 0.0737879
-0.0496229 0.0669264 0.0735722
-0.0492136 0.0669006 0.0732759
-0.0488318 0.0668705 0.0729312
-0.0484883 0.0668346 0.0725188
-0.0481314 0.0668006 0.07213
-0.0477014 0.066778 0.0718702
-0.0464387 0.0668834 0.0730787
-0.0456221 0.0669202 0.0735005
-0.0448661 0.0669477 0.0738156
-0.0442657 0.0669512 0.0738562
-0.0437497 0.0669418 0.0737481
-0.0432589 0.0669285 0.0735954
-0.0428452 0.0669033 0.0733069
-0.0424606 0.0668736 0.0729669
-0.0421089 0.0668389 0.0725691
-0.0418097 0.0667962 0.0720786
-0.0415485 0.0667476 0.0715212
-0.0412645 0.0667024 0.0710038
-0.0409419 0.0666633 0.0705547
-0.0405388 0.0666365 0.0702474
-0.0400535 0.0666223 0.0700851
-0.039532 0.0666137 0.0699866
-0.037082 0.0669017 0.0732887
-0.0363173 0.0669305 0.0736191
-0.0356233 0.0669484 0.0738247
-0.0338985 0.0671249 0.075848
-0.0330463 0.0671672 0.0763326
-0.0322892 0.0671948 0.0766496
-0.0314102 0.0672412 0.0771815
-0.0305388 0.0672864 0.0776999
-0.0297509 0.0673188 0.0780712
-0.0289815 0.0673483 0.0784099
-0.0282739 0.0673684 0.0786395
-0.0275878 0.0673851 0.0788313
-0.0269476 0.0673948 0.0789422
-0.0263862 0.0673923 0.0789141
-0.0257905 0.0673951 0.0789463
-0.0251865 0.0673992 0.0789933
-0.024601 0.0674005 0.0790077
-0.0239953 0.0674048 0.0790578
-0.0234125 0.0674057 0.0790674
-0.0228278 0.0674068 0.0790803
-0.0222502 0.0674068 0.0790807
-0.0216503 0.0674103 0.0791206
-0.0210493 0.0674139 0.0791622
-0.0205069 0.0674086 0.0791005
-0.01994 0.067407 0.0790822
-0.0193813 0.0674041 0.0790492
-0.0188491 0.0673972 0.0789697
-0.0183031 0.0673923 0.0789143
-0.0177446 0.0673894 0.0788812
-0.0172603 0.0673751 0.0787171
-0.0167927 0.0673582 0.0785235
-0.0163161 0.0673427 0.0783458
-0.0158175 0.0673307 0.0782071
-0.0153449 0.0673145 0.0780223
-0.0148751 0.067298 0.0778326
-0.0144071 0.0672812 0.0776399
-0.0139637 0.0672606 0.0774036
-0.0134986 0.0672433 0.0772056
-0.0130583 0.0672222 0.076964
-0.012617 0.0672013 0.0767242
-0.0121686 0.0671815 0.0764968
-0.0117407 0.0671585 0.0762333
-0.0113329 0.0671324 0.0759343
-0.0109273 0.067106 0.0756315
-0.0105455 0.0670759 0.0752866
-0.0102002 0.0670403 0.0748775
-0.00985572 0.0670044 0.0744668
-0.00950713 0.0669693 0.0740635
-0.00914946 0.0669355 0.0736761
-0.00877391 0.0669045 0.0733203
-0.00837939 0.0668763 0.0729979
-0.00800356 0.0668453 0.0726425
-0.00765562 0.0668101 0.072238
-0.00730652 0.066775 0.0718355
-0.00695863 0.0667397 0.071431
-0.00662611 0.066702 0.0709992
-0.00628428 0.0666658 0.0705839
-0.00590783 0.0666349 0.0702297
-0.00552887 0.0666044 0.0698799
-0.00513168 0.0665767 0.0695622
-0.00469948 0.0665544 0.0693062
-0.00423581 0.0665369 0.0691058
-0.00360242 0.0665455 0.0692046
-0.0021551 0.0666793 0.0707386
-0.00148025 0.0666943 0.0709105
-0.00084697 0.0667029 0.0710092
-0.0001956 0.0667143 0.0711397
0.00047055 0.0667279 0.0712963
0.00122211 0.0667547 0.0716034
0.00197713 0.066782 0.0719167
0.00273997 0.0668106 0.0722438
0.00346924 0.0668339 0.0725117
0.00419073 0.0668561 0.0727659
0.00488459 0.066874 0.0729713
0.00556038 0.0668892 0.0731449
0.00623253 0.0669037 0.073312
0.0068648 0.0669122 0.0734089
0.00747794 0.0669177 0.073472
0.008066 0.0669193 0.0734909
0.00864365 0.0669194 0.0734914
0.00919913 0.066916 0.0734528
0.00976652 0.0669145 0.0734353
0.0102935 0.0669067 0.0733464
0.0108139 0.066898 0.0732461
0.011323 0.0668875 0.0731257
0.0118259 0.066876 0.0729944
0.0123219 0.0668635 0.0728509
0.0128183 0.0668511 0.0727082
0.0133347 0.0668417 0.0726008
0.0139421 0.0668463 0.0726537
0.0148708 0.0669004 0.0732734
0.0156541 0.066932 0.0736364
0.0162555 0.0669357 0.0736787
0.0167757 0.0669269 0.0735781
0.0172417 0.0669098 0.0733817
0.0176592 0.0668852 0.0730999
0.0180382 0.0668547 0.0727501
0.0183779 0.0668182 0.0723311
0.0187057 0.0667798 0.071891
0.0183342 0.0665451 0.0691998
0.0185703 0.0664926 0.0685981
0.0187878 0.0664373 0.0679636
0.0189689 0.0663764 0.067265
0.019184 0.0663206 0.0666261
0.0193922 0.0662639 0.0659752
0.0195867 0.066205 0.0653002
0.0197774 0.0661455 0.0646183
0.0200252 0.0660949 0.0640373
0.020062 0.0602929 -0.00113069
0.0205706 0.0602798 -0.00126707
0.0211505 0.0602803 -0.00126201
0.0217689 0.0602881 -0.00118059
0.0245365 0.0607054 0.00316305
0.0250072 0.0606851 0.00295151
0.0254668 0.0606627 0.00271803
0.0258575 0.0606271 0.00234786
0.0262089 0.060584 0.0018997
0.0265965 0.0605479 0.00152341
0.0269672 0.0605085 0.00111356
0.0273591 0.0604732 0.0007458
0.0278017 0.0604475 0.00047868
0.0282858 0.0604297 0.00029369
0.0287758 0.0604131 0.00012052
0.0292227 0.0603882 -0.0001383
0.0296167 0.0603533 -0.00050175
0.0299691 0.0603105 -0.00094795
0.0302418 0.0602524 -0.00155206
0.030364 0.0586257 -0.0184842
0.0306934 0.0585784 -0.0189759
0.0310486 0.0585361 -0.0194164
0.0314077 0.0584945 -0.0198491
0.0317828 0.058456 -0.0202502
0.0321923 0.058424 -0.0205832
0.032604 0.0583924 -0.0209116
0.0330324 0.058364 -0.0212071
0.0334731 0.058338 -0.0214782
0.0339061 0.0583105 -0.0217645
0.0343259 0.0582805 -0.0220767
0.0347297 0.0582474 -0.022421
0.0351479 0.0582171 -0.0227366
0.0355713 0.0581878 -0.0230419
0.0359739 0.0581545 -0.0233884
0.0364128 0.0581281 -0.023663
0.0368568 0.0581027 -0.0239275
0.0372951 0.0580762 -0.0242033
0.0377161 0.0580464 -0.0245133
-0.0606801 0.0671552 0.068328
-0.0600001 0.0671709 0.068509
-0.0594071 0.0671733 0.0685366
-0.0588671 0.0671676 0.0684707
-0.0584087 0.0671494 0.068261
-0.055175 0.0675547 0.0729447
-0.0544046 0.0675842 0.0732851
-0.053575 0.0676227 0.0737299
-0.0528592 0.0676438 0.073974
-0.0522438 0.0676496 0.0740411
-0.0516705 0.067649 0.0740339
-0.0511443 0.0676412 0.0739438
-0.050636 0.0676306 0.073822
-0.0501385 0.0676185 0.0736813
-0.0496738 0.0676013 0.0734826
-0.0492546 0.0675771 0.0732038
-0.0488839 0.0675456 0.0728393
-0.0485406 0.0675099 0.0724267
-0.0482314 0.067469 0.0719538
-0.0479415 0.0674251 0.071447
-0.0475265 0.0674004 0.0711609
-0.0458403 0.0675695 0.0731159
-0.045111 0.0675927 0.0733839
-0.0445092 0.0675965 0.073427
-0.0439612 0.067592 0.0733752
-0.0434755 0.067578 0.0732136
-0.0430209 0.0675593 0.0729972
-0.0426355 0.06753 0.0726588
-0.0422987 0.0674933 0.0722345
-0.0420229 0.0674473 0.0717029
-0.04176 0.0673993 0.0711484
-0.0414572 0.0673574 0.0706643
-0.0411004 0.0673238 0.0702755
-0.0406743 0.0673007 0.0700089
-0.0401401 0.0672941 0.0699327
-0.0395608 0.0672944 0.0699362
-0.0368165 0.067625 0.073757
-0.0359615 0.0676674 0.0742464
-0.0347451 0.0677649 0.0753733
-0.0336754 0.06784 0.0762414
-0.0328461 0.0678784 0.0766857
-0.0315553 0.0679873 0.0779435
-0.0307774 0.0680179 0.0782972
-0.0299453 0.0680567 0.0787464
-0.0291722 0.0680866 0.0790916
-0.0284831 0.0681037 0.0792886
-0.0277892 0.0681214 0.079494
-0.0271665 0.0681284 0.079574
-0.0265499 0.0681344 0.0796433
-0.0259433 0.0681388 0.0796948
-0.0253472 0.0681417 0.079728
-0.0247642 0.0681425 0.0797379
-0.0242036 0.06814 0.0797082
-0.0235875 0.0681459 0.0797766
-0.0230115 0.0681457 0.0797742
-0.0224368 0.0681453 0.0797695
-0.021846 0.0681473 0.0797932
-0.0212347 0.0681525 0.0798532
-0.0206547 0.0681529 0.0798578
-0.0200898 0.068151 0.0798359
-0.0195208 0.0681497 0.0798212
-0.0189803 0.0681441 0.0797561
-0.0184428 0.068138 0.079686
-0.0179081 0.0681315 0.0796108
-0.0174035 0.0681204 0.0794825
-0.0169105 0.0681076 0.0793337
-0.0164278 0.0680931 0.0791668
-0.0159629 0.068076 0.0789686
-0.0155 0.0680585 0.0787667
-0.0150433 0.0680401 0.078554
-0.014597 0.0680201 0.078323
-0.0141738 0.0679966 0.0780511
-0.0137513 0.067973 0.0777782
-0.0133119 0.0679519 0.077535
-0.0128947 0.0679275 0.0772525
-0.0124761 0.0679033 0.0769725
-0.0120451 0.0678809 0.0767146
-0.0116188 0.0678579 0.0764482
-0.0112213 0.0678304 0.0761311
-0.0108345 0.0678014 0.0757951
-0.0104631 0.06777 0.075432
-0.0100949 0.067738 0.0750632
-0.00975099 0.0677024 0.0746516
-0.00940739 0.0676668 0.0742394
-0.00903485 0.0676355 0.0738783
-0.00864851 0.0676064 0.0735415
-0.00826121 0.0675774 0.0732064
-0.00788724 0.0675463 0.0728478
-0.0075343 0.0675121 0.0724522
-0.00717875 0.0674783 0.0720611
-0.00685136 0.0674401 0.0716203
-0.0065203 0.0674025 0.0711861
-0.00619727 0.0673638 0.0707377
-0.00585074 0.0673285 0.0703307
-0.00547493 0.0672978 0.0699753
-0.00507739 0.0672704 0.0696583
-0.00462308 0.0672516 0.0694413
-0.00411508 0.067241 0.0693191
-0.00290651 0.0673373 0.070432
-0.00199005 0.067389 0.0710299
-0.00138574 0.0673932 0.0710775
-0.00079985 0.0673945 0.0710925
-0.00021662 0.0673954 0.0711029
0.00040733 0.0674025 0.0711851
0.00114612 0.0674271 0.0714697
0.00192554 0.0674579 0.071826
0.00268588 0.0674858 0.0721487
0.00338537 0.0675045 0.072364
0.00409108 0.0675241 0.0725904
0.00479475 0.0675433 0.0728131
0.00545516 0.067556 0.0729595
0.00610678 0.0675673 0.0730905
0.00674077 0.067576 0.0731903
0.00735176 0.0675811 0.0732497
0.00795274 0.0675847 0.0732913
0.00853463 0.0675854 0.0732993
0.00909847 0.0675834 0.0732755
0.00965352 0.0675799 0.0732362
0.0101906 0.0675738 0.0731653
0.0107088 0.0675648 0.0730609
0.0112212 0.0675549 0.0729463
0.0117113 0.0675416 0.0727925
0.0122037 0.0675286 0.0726427
0.0127143 0.0675184 0.0725251
0.0132324 0.0675094 0.0724206
0.0138084 0.0675092 0.0724182
0.0147036 0.0675577 0.0729786
0.0156227 0.0676098 0.0735811
0.0162766 0.0676215 0.0737161
0.016851 0.067621 0.0737111
0.017341 0.0676077 0.0735569
0.017782 0.0675869 0.0733165
0.0181928 0.0675615 0.0730229
0.0185641 0.0675301 0.0726596
0.0189103 0.0674948 0.0722521
0.0192243 0.0674546 0.0717876
0.0189571 0.0670615 0.0672445
0.0191757 0.0670068 0.066612
0.0193506 0.0669454 0.0659024
0.0195431 0.0668866 0.0652239
0.0197488 0.0668299 0.0645686
0.0200514 0.0610107 -0.00115369
0.020531 0.0609923 -0.00134748
0.0211135 0.0609932 -0.00133729
0.0217552 0.0610054 -0.00120972
0.022424 0.0610227 -0.00102842
0.024759 0.0613547 0.0024569
0.0252288 0.0613344 0.00224376
0.025649 0.0613047 0.00193199
0.0260538 0.0612721 0.0015899
0.0264593 0.0612396 0.00124908
0.0268335 0.0612012 0.00084624
0.0272389 0.0611688 0.00050524
0.0276952 0.0611459 0.00026533
0.0281988 0.061132 0.00011911
0.0287073 0.061119 -1.755E-05
0.0291733 0.0610979 -0.00023842
0.029573 0.0610644 -0.00059068
0.0299308 0.0610229 -0.00102599
0.0302625 0.0609765 -0.00151299
0.0300243 0.0594046 -0.0180136
0.0303732 0.0593615 -0.0184666
0.0307118 0.0593164 -0.01894
0.0310574 0.0592726 -0.0193996
0.0314006 0.0592284 -0.0198639
0.0317678 0.0591887 -0.0202807
0.0321642 0.0591545 -0.0206395
0.032567 0.0591215 -0.0209856
0.032986 0.0590916 -0.0212996
0.0334167 0.0590639 -0.0215903
0.0338513 0.0590369 -0.0218735
0.0342755 0.059008 -0.022177
0.0346871 0.0589767 -0.0225059
0.0351079 0.0589471 -0.0228163
0.0355085 0.0589137 -0.0231669
0.0358911 0.0588769 -0.0235529
0.0363033 0.0588458 -0.0238803
0.0367498 0.058821 -0.0241399
0.0372013 0.0587972 -0.0243895
-0.0596757 0.0678187 0.0680634
-0.0590869 0.0678205 0.0680836
-0.0585849 0.0678091 0.0679509
-0.0582133 0.0677779 0.067588
-0.0545387 0.0682467 0.0730489
-0.0537906 0.0682725 0.07335
-0.0530747 0.0682935 0.0735942
-0.0524328 0.0683033 0.073708
-0.051828 0.0683074 0.0737565
-0.0512848 0.0683023 0.0736961
-0.0507494 0.0682959 0.0736222
-0.0502492 0.0682842 0.0734863
-0.0497877 0.0682667 0.0732819
-0.0493555 0.0682447 0.073026
-0.0489727 0.0682153 0.072683
-0.0486407 0.0681781 0.0722504
-0.0484325 0.0681223 0.0715996
-0.0482156 0.0680677 0.0709641
-0.0480286 0.0680086 0.0702758
-0.0479814 0.0679284 0.0693411
-0.045482 0.0682193 0.0727299
-0.0448933 0.068221 0.07275
-0.0443125 0.0682215 0.0727559
-0.0437636 0.0682172 0.0727059
-0.0433306 0.0681954 0.0724512
-0.0429643 0.0681635 0.0720792
-0.0426584 0.0681224 0.0716006
-0.0423832 0.0680766 0.0710679
-0.0421047 0.0680314 0.0705409
-0.041769 0.0679948 0.070115
-0.0413494 0.067971 0.0698368
-0.0408664 0.0679567 0.0696704
-0.040301 0.0679549 0.0696493
-0.0373523 0.0683138 0.0738303
-0.0364258 0.0683666 0.0744459
-0.0356429 0.0683977 0.0748083
-0.034381 0.0685014 0.0760154
-0.0334675 0.0685522 0.0766079
-0.0319049 0.0687013 0.078345
-0.0311494 0.0687283 0.0786592
-0.0303472 0.0687623 0.0790556
-0.0295688 0.0687928 0.0794102
-0.0288805 0.0688096 0.0796057
-0.0281869 0.0688272 0.0798108
-0.0275254 0.0688399 0.0799591
-0.026871 0.0688516 0.0800949
-0.0262255 0.0688619 0.0802151
-0.0255986 0.0688694 0.0803024
-0.0249787 0.0688758 0.0803774
-0.0243925 0.0688772 0.0803931
-0.0237824 0.0688821 0.0804509
-0.0231935 0.0688839 0.0804711
-0.0226372 0.0688807 0.080434
-0.0220357 0.0688843 0.0804767
-0.021451 0.0688854 0.0804895
-0.0208814 0.0688843 0.0804759
-0.0203284 0.0688806 0.0804329
-0.0197841 0.0688756 0.0803748
-0.0192416 0.0688703 0.0803132
-0.0187247 0.0688612 0.0802067
-0.0182001 0.0688532 0.0801136
-0.0177096 0.06884 0.0799605
-0.0171969 0.0688303 0.0798466
-0.0166968 0.0688186 0.0797104
-0.01621 0.0688048 0.0795506
-0.0157246 0.0687909 0.0793886
-0.0152519 0.0687751 0.0792041
-0.0147832 0.0687587 0.0790126
-0.0143371 0.0687388 0.0787811
-0.0139215 0.0687143 0.078496
-0.0135066 0.0686897 0.0782095
-0.0131144 0.0686617 0.077883
-0.0127268 0.068633 0.0775485
-0.012335 0.0686049 0.0772214
-0.0119327 0.0685784 0.0769127
-0.0115208 0.0685533 0.076621
-0.0111298 0.0685251 0.0762925
-0.0107429 0.0684963 0.0759566
-0.0103624 0.0684665 0.0756095
-0.0100121 0.0684322 0.0752093
-0.0096579 0.0683984 0.0748158
-0.0092997 0.0683652 0.0744294
-0.00892463 0.0683346 0.0740728
-0.0085431 0.068305 0.0737275
-0.00815327 0.0682766 0.0733969
-0.00778187 0.0682454 0.0730338
-0.00742973 0.0682113 0.0726367
-0.00709212 0.068175 0.072214
-0.00675432 0.0681388 0.0717917
-0.00642517 0.0681012 0.0713541
-0.00609956 0.0680631 0.0709102
-0.00577942 0.0680242 0.0704567
-0.00542959 0.0679897 0.0700556
-0.00502624 0.0679634 0.0697488
-0.0045549 0.0679474 0.0695619
-0.00391467 0.0679569 0.0696727
-0.00254119 0.0680774 0.0710764
-0.00187396 0.068091 0.0712349
-0.00130454 0.0680898 0.0712209
-0.00077725 0.0680822 0.0711326
-0.00025401 0.068074 0.0710372
0.00030696 0.0680715 0.0710084
0.00099245 0.0680879 0.071199
0.0017918 0.0681215 0.0715904
0.00257533 0.0681527 0.071954
0.00328238 0.0681723 0.0721826
0.0039626 0.0681879 0.072364
0.00465938 0.068206 0.0725746
0.00534392 0.0682222 0.0727636
0.00599699 0.0682337 0.0728971
0.00663327 0.0682426 0.073001
0.00723897 0.0682469 0.0730509
0.00783952 0.0682504 0.0730919
0.0084253 0.0682517 0.0731067
0.00900135 0.0682515 0.0731044
0.00954474 0.0682463 0.0730446
0.0100834 0.0682405 0.0729764
0.0106107 0.0682329 0.0728881
0.011118 0.0682223 0.0727646
0.0116201 0.0682109 0.0726319
0.0121077 0.0681973 0.0724737
0.012601 0.0681846 0.0723255
0.0131057 0.0681736 0.0721974
0.0136624 0.0681705 0.0721609
0.0144781 0.0682065 0.0725813
0.0155327 0.0682788 0.0734226
0.0162699 0.068303 0.0737045
0.0168797 0.0683079 0.0737618
0.0173906 0.0682978 0.0736445
0.0178643 0.0682821 0.0734618
0.0183044 0.0682614 0.0732198
0.0187213 0.0682371 0.0729369
0.0191067 0.068208 0.0725986
0.0194387 0.0681709 0.072166
0.0197705 0.0681337 0.071733
0.0200799 0.0680932 0.0712606
0.0199886 0.0617188 -0.00128022
0.0204513 0.0616973 -0.00150753
0.0210047 0.0616928 -0.00155517
0.0216697 0.0617093 -0.00138138
0.0223475 0.0617281 -0.00118218
0.0245508 0.0620326 0.00204175
0.0250119 0.0620108 0.00181134
0.0254356 0.061982 0.00150667
0.0258774 0.0619566 0.00123784
0.0262968 0.0619271 0.00092485
0.0267059 0.0618955 0.0005911
0.0271428 0.0618692 0.00031258
0.0275946 0.0618457 6.363E-05
0.0280875 0.0618299 -0.00010385
0.0285874 0.0618154 -0.00025728
0.0290768 0.0617989 -0.00043184
0.0294866 0.0617676 -0.00076401
0.029846 0.0617267 -0.00119618
0.0302127 0.0616873 -0.00161376
0.0300284 0.0601391 -0.0180061
0.0303908 0.0600988 -0.0184323
0.0307264 0.0600536 -0.0189118
0.0310564 0.0600072 -0.0194022
0.0313749 0.0599588 -0.0199156
0.0317171 0.0599147 -0.0203818
0.0321081 0.0598798 -0.0207513
0.0324996 0.059845 -0.0211199
0.0329061 0.059813 -0.0214586
0.0333212 0.0597826 -0.0217802
0.0337384 0.0597527 -0.0220978
0.0341772 0.0597267 -0.0223724
0.0346114 0.0596999 -0.0226563
0.035041 0.0596722 -0.0229492
0.0354382 0.0596385 -0.0233066
0.0358307 0.0596039 -0.0236731
0.0362104 0.0595669 -0.0240649
0.0368317 0.0581675 -0.0388893
0.0371248 0.058112 -0.0394851
0.0374079 0.0580545 -0.0401023
0.0376581 0.0579906 -0.0407881
0.0379635 0.0579375 -0.0413584
0.038256 0.0578819 -0.0419556
-0.0546603 0.0689114 0.0728347
-0.0539192 0.068936 0.0731233
-0.0532581 0.0689486 0.0732711
-0.0526346 0.0689555 0.0733524
-0.0520069 0.0689631 0.0734411
-0.051456 0.0689591 0.0733945
-0.0509111 0.0689542 0.0733373
-0.0504077 0.0689431 0.0732069
-0.0499503 0.0689251 0.0729954
-0.0495219 0.0689027 0.0727329
-0.0491372 0.0688738 0.0723932
-0.0488384 0.068832 0.071902
-0.0486764 0.0687696 0.0711698
-0.0485101 0.0687079 0.0704451
-0.0483615 0.0686435 0.0696892
-0.0483939 0.068552 0.0686141
-0.0483136 0.0684773 0.0677378
-0.0482194 0.0684048 0.066886
-0.0480778 0.0683394 0.0661178
-0.0478731 0.0682834 0.0654609
-0.0476053 0.068237 0.0649152
-0.0473478 0.0681889 0.0643512
-0.0471141 0.0681373 0.0637453
-0.0427409 0.0687073 0.0704376
-0.0424621 0.0686624 0.0699112
-0.0420906 0.0686315 0.0695483
-0.0416706 0.0686079 0.0692708
-0.0411664 0.0685969 0.0691418
-0.0375498 0.0690532 0.0745002
-0.0368597 0.0690702 0.0746991
-0.0361128 0.0690956 0.0749979
-0.0353674 0.0691209 0.0752941
-0.034147 0.0692174 0.0764278
-0.032422 0.0693897 0.0784512
-0.0316401 0.0694204 0.0788117
-0.0308559 0.0694515 0.0791765
-0.0301002 0.0694783 0.079491
-0.0293494 0.0695043 0.0797967
-0.0286824 0.0695178 0.0799549
-0.027998 0.0695338 0.0801435
-0.0273333 0.069547 0.0802976
-0.0266608 0.0695613 0.0804654
-0.0260135 0.0695717 0.0805886
-0.0254032 0.0695767 0.0806467
-0.0247792 0.0695837 0.0807291
-0.0241722 0.0695882 0.0807813
-0.0235533 0.0695944 0.0808545
-0.0229729 0.0695948 0.0808599
-0.0224078 0.069593 0.0808383
-0.0218387 0.0695918 0.0808236
-0.0212789 0.0695891 0.0807928
-0.0207333 0.0695844 0.0807368
-0.0201722 0.0695819 0.0807082
-0.0196244 0.0695775 0.080656
-0.0190926 0.0695706 0.0805756
-0.0185754 0.0695616 0.0804697
-0.0180755 0.06955 0.0803331
-0.0175808 0.0695376 0.0801875
-0.0170568 0.0695296 0.0800934
-0.0165746 0.0695153 0.0799256
-0.0160867 0.0695019 0.0797679
-0.015593 0.0694893 0.0796204
-0.0151031 0.0694762 0.0794663
-0.0146343 0.0694599 0.079275
-0.0141758 0.069442 0.0790654
-0.013743 0.0694203 0.0788106
-0.0133123 0.0693983 0.0785519
-0.0129189 0.0693707 0.0782277
-0.0125528 0.069339 0.0778552
-0.0121678 0.0693101 0.0775161
-0.0117938 0.0692796 0.0771575
-0.0114181 0.0692493 0.0768021
-0.0110464 0.0692184 0.0764395
-0.010668 0.0691885 0.0760887
-0.0102877 0.0691589 0.0757414
-0.0099229 0.069127 0.0753666
-0.00958023 0.0690918 0.0749528
-0.00920894 0.0690609 0.0745896
-0.00881603 0.0690332 0.0742644
-0.00842977 0.0690045 0.0739275
-0.00806052 0.0689732 0.0735606
-0.00769113 0.068942 0.0731939
-0.007333 0.0689091 0.0728074
-0.00699303 0.0688735 0.072389
-0.00665695 0.0688372 0.0719636
-0.00632054 0.068801 0.0715388
-0.00601501 0.0687602 0.0710596
-0.00569433 0.0687217 0.070607
-0.00535385 0.0686861 0.0701895
-0.00495912 0.0686587 0.0698674
-0.00446014 0.0686469 0.0697293
-0.00321152 0.0687477 0.0709128
-0.00238147 0.0687857 0.0713583
-0.00177635 0.0687898 0.0714072
-0.00124361 0.0687831 0.0713286
-0.00077501 0.0687668 0.0711368
-0.00029962 0.0687515 0.0709571
0.0002003 0.0687399 0.0708206
0.00078428 0.0687409 0.0708323
0.00157428 0.0687728 0.0712072
0.00239719 0.0688097 0.0716401
0.00315164 0.0688363 0.0719523
0.00382552 0.0688508 0.0721225
0.00450699 0.0688664 0.0723061
0.00519185 0.0688825 0.0724957
0.00585768 0.0688958 0.0726517
0.00650922 0.068907 0.0727824
0.00712325 0.0689125 0.0728471
0.00771594 0.0689148 0.0728742
0.0083053 0.0689166 0.0728953
0.00886867 0.0689145 0.0728707
0.00943229 0.0689124 0.0728465
0.00995771 0.0689046 0.0727549
0.0104898 0.0688978 0.072675
0.0110026 0.0688881 0.0725614
0.0115072 0.0688772 0.0724331
0.0119812 0.0688617 0.0722509
0.0124564 0.0688463 0.0720707
0.0129575 0.0688349 0.0719364
0.013508 0.0688309 0.071889
0.0142387 0.0688539 0.0721593
0.0153968 0.0689411 0.0731832
0.016247 0.068982 0.0736642
0.016885 0.0689912 0.0737713
0.0174211 0.068985 0.0736986
0.0179238 0.0689738 0.0735669
0.0183974 0.0689582 0.0733839
0.0188521 0.0689398 0.0731677
0.0192762 0.0689168 0.0728976
0.0196521 0.0688865 0.0725423
0.0199919 0.0688508 0.0721236
0.0202629 0.0688049 0.0715835
0.0205317 0.0687585 0.0710394
0.0199261 0.0624271 -0.00140628
0.0203536 0.0623993 -0.00170328
0.0208524 0.0623847 -0.00185913
0.0214745 0.0623931 -0.00177025
0.0222493 0.0624297 -0.00137888
0.0231503 0.0624898 -0.00073723
0.0245468 0.0626419 0.000887
0.0251886 0.0626538 0.00101463
0.0256875 0.0626393 0.00085908
0.0261484 0.0626177 0.00062835
0.026603 0.0625949 0.00038486
0.0270706 0.0625745 0.00016737
0.0275284 0.0625523 -6.963E-05
0.0279962 0.062532 -0.00028686
0.0284524 0.0625095 -0.0005271
0.0289084 0.0624869 -0.00076766
0.029334 0.0624588 -0.00106861
0.0297435 0.0624276 -0.00140141
0.0296315 0.0609063 -0.0176492
0.0300197 0.0608712 -0.0180241
0.0303738 0.0608297 -0.0184668
0.0306991 0.0607829 -0.0189666
0.031026 0.0607364 -0.019463
0.0313465 0.0606887 -0.0199724
0.031681 0.0606437 -0.0204539
0.0320444 0.0606039 -0.0208782
0.0324125 0.0605651 -0.0212929
0.0327939 0.0605287 -0.0216815
0.033191 0.0604953 -0.0220388
0.033596 0.0604633 -0.0223805
0.0340331 0.0604372 -0.0226587
0.0344864 0.0604142 -0.0229045
0.0349569 0.0603944 -0.0231165
0.0353675 0.0603634 -0.0234471
0.035108 0.0591362 -0.0365533
0.035518 0.0591052 -0.0368849
0.0358784 0.0590649 -0.0373152
0.0362213 0.0590214 -0.0377801
0.0365818 0.0589811 -0.0382099
0.036919 0.0589352 -0.0387055
0.0372054 0.0588788 -0.0393154
0.0375303 0.0588299 -0.0398447
0.0378433 0.0587787 -0.0403991
0.0381563 0.0587275 -0.0409535
0.0384374 0.0586701 -0.0415745
0.0387016 0.0586095 -0.0422311
0.0389578 0.0585473 -0.0429045
-0.0534251 0.0696065 0.0729768
-0.0527934 0.0696146 0.0730726
-0.0522071 0.0696159 0.0730884
-0.0516325 0.0696155 0.0730835
-0.0511002 0.0696088 0.0730041
-0.0506005 0.0695972 0.0728671
-0.0501634 0.0695764 0.0726199
-0.0497763 0.069548 0.0722846
-0.0494601 0.0695091 0.0718242
-0.0492234 0.0694584 0.0712235
-0.0490744 0.0693946 0.0704684
-0.0493306 0.0690985 0.0669632
-0.0489525 0.0690688 0.0666119
-0.0486497 0.0690279 0.066128
-0.0483357 0.0689887 0.0656637
-0.0480507 0.0689452 0.0651483
-0.0477888 0.0688982 0.0645921
-0.0475243 0.0688516 0.0640407
-0.0472594 0.0688051 0.0634899
-0.0469651 0.0687629 0.0629907
-0.0467257 0.0687126 0.062395
-0.0439438 0.0690409 0.0662815
-0.0430399 0.0690895 0.0668572
-0.0378725 0.0697731 0.0749492
-0.0372757 0.069776 0.0749835
-0.036592 0.0697919 0.0751709
-0.0358718 0.0698132 0.0754229
-0.0351221 0.0698388 0.0757266
-0.0329846 0.0700712 0.0784771
-0.0322311 0.0700974 0.0787876
-0.0314168 0.0701327 0.0792053
-0.0306583 0.0701597 0.0795248
-0.0299297 0.0701822 0.0797915
-0.0291551 0.0702116 0.0801392
-0.0285144 0.070221 0.0802508
-0.0278265 0.0702375 0.0804457
-0.0271704 0.0702492 0.0805845
-0.026506 0.0702622 0.080738
-0.0258748 0.0702702 0.080833
-0.0252602 0.0702757 0.0808987
-0.0246483 0.0702809 0.0809595
-0.0240357 0.0702861 0.0810217
-0.0234348 0.0702896 0.0810632
-0.0228435 0.0702917 0.0810878
-0.0222728 0.0702907 0.081076
-0.0217055 0.0702892 0.0810584
-0.021153 0.0702855 0.0810145
-0.020605 0.0702812 0.0809628
-0.0200581 0.0702766 0.0809091
-0.0195235 0.0702703 0.0808337
-0.018989 0.0702639 0.0807582
-0.0184758 0.0702543 0.0806451
-0.0179794 0.0702423 0.0805024
-0.0174656 0.0702328 0.0803903
-0.0169626 0.0702217 0.0802592
-0.0164797 0.0702077 0.0800928
-0.0159902 0.0701946 0.0799378
-0.0154909 0.0701829 0.0798003
-0.0149973 0.0701705 0.0796526
-0.0145253 0.0701548 0.0794668
-0.0140627 0.0701377 0.0792647
-0.0136065 0.0701196 0.079051
-0.0131666 0.0700992 0.0788087
-0.0127613 0.0700736 0.0785054
-0.0123687 0.070046 0.0781796
-0.0120009 0.0700148 0.0778102
-0.0116615 0.0699794 0.0773907
-0.0113046 0.0699466 0.0770021
-0.0109418 0.0699146 0.0766239
-0.0105818 0.0698822 0.0762407
-0.0102207 0.06985 0.0758595
-0.00984679 0.0698197 0.0755008
-0.00947801 0.0697887 0.0751331
-0.00910564 0.0697581 0.0747718
-0.00871654 0.0697301 0.0744399
-0.00832117 0.069703 0.0741191
-0.00795108 0.0696721 0.0737537
-0.00758839 0.0696402 0.0733752
-0.00725021 0.0696046 0.0729536
-0.00689983 0.0695707 0.0725535
-0.00657072 0.0695338 0.0721158
-0.00624457 0.0694964 0.071673
-0.00592525 0.0694579 0.0712181
-0.0056055 0.0694196 0.0707639
-0.00524576 0.0693872 0.0703803
-0.00483204 0.0693628 0.0700918
-0.00428125 0.0693588 0.070045
-0.00298599 0.0694658 0.0713106
-0.00228167 0.0694847 0.0715345
-0.00170888 0.069484 0.0715264
-0.0012074 0.0694727 0.0713927
-0.00078053 0.0694503 0.0711274
-0.00034856 0.0694286 0.0708711
0.00010257 0.0694098 0.0706486
0.00060623 0.0693989 0.0705187
0.00125448 0.0694094 0.0706437
0.00209714 0.0694489 0.0711114
0.00295659 0.0694909 0.0716087
0.0036552 0.069509 0.0718225
0.0043458 0.0695259 0.0720221
0.00499977 0.0695373 0.0721572
0.00565529 0.0695489 0.072295
0.00631201 0.0695607 0.072435
0.00695679 0.0695708 0.0725538
0.0075495 0.0695731 0.0725809
0.00812958 0.0695735 0.0725857
0.00869115 0.0695711 0.0725579
0.00926521 0.0695706 0.0725521
0.00980217 0.0695646 0.0724809
0.0103173 0.0695554 0.0723712
0.0108322 0.0695461 0.0722611
0.0113389 0.0695355 0.0721366
0.0118201 0.0695212 0.071967
0.0122975 0.0695063 0.0717908
0.0128063 0.0694961 0.07167
0.0134062 0.0694995 0.0717097
0.0141645 0.0695264 0.0720287
0.0152808 0.0696067 0.0729788
0.0162104 0.0696592 0.0735999
0.0168917 0.0696746 0.0737831
0.0174495 0.0696717 0.0737487
0.0179781 0.0696645 0.0736628
0.0184733 0.0696522 0.0735178
0.0189548 0.0696379 0.0733489
0.0194106 0.0696199 0.0731347
0.0198211 0.069595 0.0728404
0.0201797 0.0695624 0.0724549
0.0204815 0.0695214 0.0719691
0.0207583 0.0694766 0.0714392
0.0207049 0.063078 -0.00215353
0.0212033 0.0630635 -0.00231002
0.0219687 0.0630981 -0.00193723
0.0232097 0.0632202 -0.00062143
0.0241646 0.0632897 0.00012704
0.0249218 0.0633228 0.00048368
0.0255059 0.063324 0.00049698
0.026029 0.0633141 0.00038949
0.0265154 0.0632973 0.00020912
0.0270045 0.0632811 3.417E-05
0.0274653 0.0632596 -0.00019682
0.0279033 0.063234 -0.00047311
0.0283321 0.0632067 -0.00076773
0.0287527 0.0631778 -0.00107849
0.0291447 0.0631437 -0.00144598
0.0291419 0.0616558 -0.017476
0.029565 0.0616274 -0.0177818
0.0299552 0.061593 -0.0181529
0.0303209 0.0615541 -0.0185724
0.0306523 0.0615088 -0.0190601
0.0309846 0.0614637 -0.0195459
0.0313086 0.0614171 -0.020048
0.0316564 0.0613748 -0.0205032
0.0319968 0.0613312 -0.020973
0.0323308 0.0612864 -0.0214555
0.0326925 0.0612468 -0.021883
0.0330552 0.0612073 -0.0223085
0.0334429 0.0611724 -0.0226846
0.0338812 0.0611468 -0.0229601
0.0343611 0.0611289 -0.0231533
0.0340464 0.0600085 -0.0352234
0.0343979 0.059967 -0.0356712
0.0347723 0.0599296 -0.0360733
0.0351662 0.0598959 -0.0364372
0.0355677 0.0598635 -0.0367859
0.0359556 0.0598287 -0.0371614
0.0363381 0.0597928 -0.0375477
0.0367079 0.0597546 -0.0379592
0.0370361 0.0597083 -0.0384591
0.0373525 0.0596582 -0.0390063
0.0376866 0.0596115 -0.0395162
0.0380514 0.0595706 -0.039962
0.0383528 0.0595176 -0.0405407
0.0386412 0.0594621 -0.0411464
0.0389064 0.0594021 -0.041801
0.0391922 0.0593461 -0.0424124
0.0394843 0.0592913 -0.0430106
0.0397546 0.0592323 -0.0436543
0.040018 0.059172 -0.0443125
-0.0523729 0.0702744 0.0727962
-0.0518296 0.0702694 0.0727363
-0.051306 0.0702614 0.0726414
-0.0508456 0.0702441 0.0724352
-0.0504185 0.070222 0.0721705
-0.0500716 0.0701879 0.0717641
-0.0497926 0.0701438 0.0712382
-0.0503659 0.069718 0.0661564
-0.0498054 0.0697155 0.0661267
-0.0493924 0.0696912 0.065837
-0.049015 0.0696617 0.0654845
-0.0486743 0.0696267 0.0650674
-0.0483352 0.0695916 0.0646473
-0.048032 0.0695511 0.064164
-0.0477926 0.0695011 0.0635683
-0.0474929 0.0694601 0.0630789
-0.0471756 0.0694217 0.0626204
-0.0469792 0.0693654 0.0619489
-0.0467539 0.0693134 0.0613282
-0.0377878 0.0704673 0.0750986
-0.0370751 0.0704873 0.0753372
-0.0363695 0.0705063 0.0755633
-0.0356531 0.0705268 0.0758084
-0.0336199 0.0707418 0.0783749
-0.0328351 0.0707725 0.0787405
-0.0320531 0.0708027 0.0791013
-0.031261 0.0708344 0.0794799
-0.030503 0.0708611 0.0797984
-0.0297769 0.0708831 0.0800606
-0.0290429 0.0709062 0.0803367
-0.0283934 0.0709169 0.0804639
-0.027707 0.070933 0.0806561
-0.027049 0.0709449 0.0807983
-0.0264008 0.0709554 0.0809232
-0.0257768 0.0709623 0.0810054
-0.0251575 0.0709685 0.0810794
-0.0245398 0.0709744 0.0811505
-0.0239311 0.0709791 0.0812059
-0.0233374 0.0709815 0.0812346
-0.022746 0.0709836 0.0812595
-0.0221702 0.0709833 0.0812567
-0.0216212 0.0709791 0.0812067
-0.0210658 0.0709759 0.0811679
-0.0205207 0.0709711 0.0811112
-0.0199865 0.0709648 0.0810352
-0.0194511 0.0709586 0.0809612
-0.0189217 0.0709515 0.0808766
-0.0184152 0.070941 0.0807518
-0.0179046 0.0709312 0.080634
-0.0173908 0.0709218 0.0805221
-0.0169094 0.0709076 0.0803529
-0.016409 0.0708962 0.0802171
-0.0159097 0.0708847 0.0800797
-0.0154166 0.0708723 0.0799311
-0.0149226 0.0708599 0.0797841
-0.014445 0.0708452 0.0796083
-0.013979 0.0708288 0.079412
-0.0134996 0.0708143 0.0792393
-0.0130485 0.0707956 0.0790168
-0.0126275 0.0707725 0.0787412
-0.0122206 0.0707474 0.0784406
-0.0118672 0.0707143 0.0780458
-0.0115232 0.0706798 0.0776345
-0.0111813 0.070645 0.0772195
-0.0108437 0.0706096 0.0767969
-0.0104897 0.0705766 0.0764031
-0.010135 0.0705437 0.0760105
-0.00977275 0.070512 0.0756314
-0.00939263 0.0704828 0.0752837
-0.00898725 0.0704574 0.0749806
-0.00858885 0.070431 0.0746651
-0.00820923 0.0704018 0.0743165
-0.00785217 0.0703692 0.0739282
-0.00749956 0.070336 0.073532
-0.00717033 0.0702994 0.0730946
-0.00683004 0.0702644 0.0726767
-0.00649355 0.0702288 0.0722521
-0.00616794 0.0701916 0.0718083
-0.00583589 0.0701554 0.0713759
-0.00551166 0.070118 0.0709296
-0.00514966 0.0700862 0.07055
-0.00470965 0.0700659 0.0703079
-0.00389861 0.0701004 0.0707199
-0.0028862 0.0701647 0.0714868
-0.00222218 0.0701775 0.0716396
-0.00167818 0.0701725 0.0715808
-0.0011991 0.070158 0.0714076
-0.00078175 0.0701344 0.0711255
-0.00038984 0.070107 0.0707986
1.784E-05 0.0700819 0.0704995
0.00047203 0.0700637 0.0702824
0.00100587 0.0700573 0.0702057
0.00169475 0.0700738 0.0704023
0.0025984 0.070122 0.0709776
0.003392 0.0701539 0.0713587
0.00410269 0.0701736 0.0715938
0.00477504 0.0701877 0.0717613
0.00541225 0.0701965 0.0718668
0.00608192 0.0702101 0.0720295
0.00670934 0.0702175 0.0721178
0.00732988 0.0702239 0.0721939
0.0079032 0.0702233 0.0721868
0.00847945 0.0702232 0.0721849
0.00903488 0.0702199 0.0721463
0.00959396 0.0702172 0.0721141
0.0101136 0.0702087 0.0720123
0.0106261 0.0701991 0.071898
0.0111436 0.0701903 0.0717925
0.0116224 0.0701757 0.0716187
0.0121035 0.0701615 0.0714491
0.0126303 0.070154 0.07136
0.0133623 0.0701769 0.0716326
0.0142406 0.0702213 0.072163
0.0152318 0.0702825 0.0728927
0.0161848 0.070338 0.0735548
0.0169001 0.0703583 0.0737981
0.0174783 0.0703585 0.0737996
0.0180112 0.0703519 0.0737212
0.0185194 0.0703417 0.0735993
0.0190187 0.0703302 0.0734618
0.0194987 0.0703158 0.0732902
0.0199402 0.0702957 0.0730506
0.0203247 0.0702672 0.0727107
0.0206546 0.0702307 0.0722745
0.0209549 0.0701897 0.071786
0.0212602 0.0701495 0.0713064
0.0240546 0.0639884 -9.308E-05
0.0247437 0.0640088 0.0001284
0.0253472 0.0640136 0.00018021
0.0259177 0.0640123 0.00016662
0.0264351 0.0640014 4.782E-05
0.0269233 0.0639851 -0.00012895
0.0273918 0.0639653 -0.00034473
0.0278199 0.0639381 -0.0006405
0.0282212 0.063906 -0.00098955
0.0286219 0.0638737 -0.00133976
0.028991 0.0638358 -0.00175247
0.0285895 0.0623936 -0.0174273
0.0290621 0.0623745 -0.017635
0.0294871 0.0623467 -0.0179369
0.0298752 0.0623122 -0.0183122
0.0302447 0.0622743 -0.0187242
0.030601 0.062234 -0.0191624
0.0309443 0.0621913 -0.0196264
0.0312819 0.0621476 -0.0201016
0.031638 0.0621072 -0.0205403
0.0319677 0.0620621 -0.0210311
0.032289 0.0620154 -0.0215387
0.0326087 0.0619683 -0.0220496
0.0329261 0.0619209 -0.0225649
0.0332932 0.0618826 -0.0229817
0.0333213 0.0608347 -0.0343712
0.033727 0.0608034 -0.0347115
0.0341001 0.0607662 -0.0351163
0.0344747 0.0607292 -0.0355182
0.0348564 0.0606935 -0.0359061
0.035242 0.0606585 -0.0362862
0.0356307 0.0606241 -0.0366602
0.0360233 0.0605904 -0.0370264
0.0364099 0.0605556 -0.0374045
0.0368129 0.0605238 -0.0377502
0.0371627 0.0604823 -0.0382012
0.0374904 0.0604354 -0.0387164
0.0378589 0.0603956 -0.0391541
0.038205 0.0603515 -0.0396391
0.0385151 0.0603006 -0.0401995
0.0388276 0.0602501 -0.040755
0.0391105 0.060194 -0.0413722
0.0393911 0.0601374 -0.0419944
0.0396982 0.0600859 -0.0425613
0.0400129 0.0600359 -0.0431119
0.0401711 0.059956 -0.0439909
0.0404531 0.0598997 -0.0446102
-0.0505905 0.0703728 0.065761
-0.05007 0.0703645 0.0656608
-0.0496717 0.0703383 0.0653452
-0.0493248 0.0703045 0.0649389
-0.0490006 0.0702674 0.0644927
-0.0486586 0.0702329 0.0640779
-0.048337 0.0701955 0.0636271
-0.0480661 0.0701506 0.0630868
-0.0478017 0.0701047 0.0625352
-0.0477254 0.0700313 0.0616519
-0.0475346 0.0699747 0.0609705
-0.0471575 0.0699453 0.0606176
-0.0382703 0.0711628 0.0752659
-0.037614 0.0711743 0.075405
-0.0368661 0.0711993 0.0757056
-0.0361232 0.0712236 0.0759975
-0.0353105 0.071258 0.0764123
-0.0335098 0.0714373 0.0785689
-0.0327086 0.0714701 0.0789634
-0.0319265 0.0715001 0.0793243
-0.0311435 0.0715302 0.0796868
-0.0304121 0.0715528 0.0799584
-0.0296592 0.0715785 0.080268
-0.0289656 0.0715955 0.0804728
-0.0282963 0.071609 0.0806349
-0.0276219 0.0716232 0.080806
-0.0269532 0.0716366 0.080967
-0.0263259 0.0716439 0.0810551
-0.0257052 0.0716503 0.0811315
-0.0250651 0.0716594 0.081242
-0.024462 0.0716632 0.0812874
-0.0238543 0.0716677 0.081341
-0.023248 0.0716719 0.081392
-0.0226877 0.0716694 0.0813619
-0.0221054 0.0716701 0.0813707
-0.021542 0.0716681 0.081346
-0.0209961 0.0716635 0.0812906
-0.0204647 0.0716568 0.0812096
-0.019932 0.0716502 0.081131
-0.0194069 0.0716426 0.0810388
-0.0188812 0.071635 0.0809477
-0.0183704 0.0716252 0.0808305
-0.017854 0.0716163 0.0807231
-0.0173433 0.0716066 0.0806056
-0.0168534 0.0715937 0.0804514
-0.0163477 0.0715832 0.0803251
-0.0158489 0.0715717 0.0801866
-0.0153598 0.0715588 0.0800311
-0.0148651 0.0715467 0.0798854
-0.0143784 0.0715334 0.0797255
-0.0139036 0.0715184 0.0795447
-0.0134307 0.0715031 0.0793607
-0.0129694 0.0714861 0.0791562
-0.0125364 0.0714649 0.0789017
-0.0121209 0.0714412 0.0786163
-0.0117422 0.0714121 0.0782662
-0.0113958 0.0713783 0.077859
-0.0110666 0.0713419 0.0774216
-0.0107344 0.071306 0.0769895
-0.010399 0.0712706 0.0765629
-0.0100429 0.0712382 0.076173
-0.00967495 0.0712075 0.0758038
-0.00929808 0.0711781 0.0754504
-0.00889374 0.0711528 0.0751455
-0.00849204 0.071127 0.0748359
-0.00810789 0.0710987 0.0744953
-0.00775681 0.0710656 0.0740964
-0.00742663 0.0710294 0.0736607
-0.00709015 0.0709941 0.0732361
-0.0067471 0.0709597 0.072823
-0.00641948 0.0709232 0.0723829
-0.00609814 0.0708857 0.0719316
-0.00578241 0.0708473 0.0714704
-0.00544509 0.0708122 0.0710473
-0.00506404 0.0707834 0.0707013
-0.00458854 0.0707685 0.0705217
-0.00364787 0.0708217 0.0711621
-0.0028136 0.0708593 0.0716151
-0.00220018 0.0708646 0.0716786
-0.00167309 0.0708573 0.07159
-0.00121565 0.0708397 0.0713786
-0.00081088 0.0708144 0.0710744
-0.00043386 0.0707851 0.0707213
-4.432E-05 0.0707576 0.0703903
0.00036748 0.0707333 0.0700984
0.0008201 0.070715 0.0698785
0.00135199 0.0707084 0.0697984
0.00210298 0.0707338 0.0701045
0.0029906 0.0707793 0.0706514
0.00380041 0.0708133 0.0710612
0.0044839 0.0708289 0.0712483
0.00511191 0.0708363 0.0713376
0.00576062 0.0708467 0.0714634
0.0063862 0.0708538 0.0715484
0.00703645 0.0708645 0.0716769
0.00761066 0.070864 0.0716714
0.00819846 0.0708656 0.0716898
0.00876276 0.0708636 0.0716668
0.00930835 0.070859 0.0716108
0.00985786 0.0708549 0.0715617
0.0103945 0.0708489 0.0714899
0.0109027 0.0708388 0.0713681
0.0113886 0.0708254 0.0712069
0.0118688 0.0708112 0.0710356
0.0124227 0.0708078 0.0709943
0.0134548 0.0708744 0.0717958
0.0143968 0.0709278 0.0724387
0.0152597 0.0709696 0.072942
0.0161505 0.0710155 0.0734945
0.016873 0.0710368 0.0737505
0.0174692 0.0710396 0.0737837
0.018018 0.0710354 0.0737334
0.0185337 0.0710264 0.0736246
0.0190467 0.0710169 0.0735113
0.0195414 0.0710048 0.0733655
0.0200153 0.0709897 0.0731831
0.0204158 0.0709638 0.0728714
0.0207538 0.0709287 0.0724495
0.0210786 0.0708917 0.0720043
0.0213584 0.0708481 0.0714798
0.0216562 0.0708072 0.070987
0.0246078 0.064703 -0.00014306
0.0251842 0.0647029 -0.00014496
0.0257702 0.0647044 -0.00012792
0.0263172 0.0646989 -0.00018801
0.026818 0.0646851 -0.00033972
0.0272933 0.0646667 -0.00054194
0.0277321 0.0646416 -0.00081674
0.0281541 0.0646135 -0.00112462
0.0285745 0.0645852 -0.0014357
0.0278773 0.0631025 -0.0176953
0.0284507 0.0631017 -0.0177033
0.0289373 0.0630853 -0.0178831
0.0294058 0.0630657 -0.0180989
0.0298045 0.0630334 -0.018453
0.0301804 0.062997 -0.0188523
0.0305608 0.0629614 -0.0192427
0.0309302 0.0629238 -0.0196549
0.0312711 0.062881 -0.0201235
0.0316331 0.0628421 -0.0205505
0.0319722 0.062799 -0.0210228
0.032275 0.0627494 -0.0215669
0.0325566 0.062696 -0.0221531
0.0328447 0.0626437 -0.0227266
0.03297 0.0616227 -0.0339225
0.0333563 0.0615882 -0.0343013
0.0337579 0.0615564 -0.0346497
0.0341484 0.0615226 -0.03502
0.0345276 0.0614868 -0.0354128
0.034911 0.0614518 -0.0357972
0.0352992 0.0614176 -0.0361721
0.0356802 0.0613821 -0.0365614
0.0360757 0.0613492 -0.0369219
0.0364695 0.061316 -0.0372858
0.0368517 0.0612808 -0.0376725
0.0372159 0.0612422 -0.0380951
0.0375573 0.0611987 -0.0385753
0.0379387 0.0611616 -0.0389862
0.0383068 0.0611221 -0.039425
0.0386338 0.0610748 -0.0399499
0.0389468 0.0610248 -0.0405041
0.0392748 0.0609777 -0.0410271
0.0395731 0.0609249 -0.0416122
0.0398604 0.0608701 -0.0422205
0.0401466 0.0608151 -0.0428309
0.0404223 0.060758 -0.0434634
0.0406867 0.0606989 -0.0441197
0.0409237 0.0606345 -0.0448334
0.0411743 0.0605728 -0.0455185
-0.0496432 0.0709468 0.0643783
-0.0493438 0.0709064 0.0638883
-0.0482584 0.0706447 0.0607132
-0.0480181 0.0705957 0.060119
-0.0475742 0.0705763 0.0598838
-0.0382025 0.0718541 0.0753853
-0.0374392 0.0718811 0.0757133
-0.0366261 0.0719153 0.0761288
-0.0358713 0.0719411 0.0764416
-0.034391 0.0720723 0.0780332
-0.0334584 0.0721239 0.0786593
-0.0326448 0.0721582 0.0790758
-0.0318649 0.0721877 0.0794328
-0.0310898 0.0722164 0.0797814
-0.0303537 0.0722395 0.0800611
-0.0295945 0.0722659 0.0803818
-0.0288959 0.0722835 0.0805955
-0.0282244 0.0722972 0.0807613
-0.0275548 0.0723106 0.0809241
-0.0268844 0.0723241 0.0810881
-0.0262705 0.0723294 0.0811524
-0.0256509 0.0723355 0.0812269
-0.0250074 0.0723452 0.0813435
-0.0243977 0.0723499 0.0814005
-0.0238087 0.0723516 0.0814212
-0.0231975 0.0723565 0.0814808
-0.0226467 0.0723526 0.0814339
-0.0220713 0.0723523 0.0814305
-0.0214926 0.0723525 0.0814328
-0.0209545 0.0723468 0.0813637
-0.0204224 0.0723403 0.0812839
-0.0198978 0.0723326 0.0811909
-0.019377 0.0723244 0.0810914
-0.0188485 0.0723173 0.0810052
-0.0183355 0.0723079 0.0808918
-0.0178224 0.0722986 0.0807784
-0.0173093 0.0722893 0.0806653
-0.016813 0.0722775 0.0805224
-0.0163101 0.0722667 0.0803911
-0.0158093 0.0722555 0.0802563
-0.015314 0.0722436 0.0801117
-0.0148256 0.0722307 0.0799549
-0.0143436 0.0722168 0.0797868
-0.0138653 0.0722025 0.0796122
-0.0133964 0.0721867 0.0794211
-0.0129325 0.0721702 0.079221
-0.0124932 0.0721502 0.0789776
-0.0120725 0.0721274 0.0787016
-0.0116633 0.072103 0.0784052
-0.0112873 0.0720737 0.0780502
-0.0109702 0.0720359 0.0775914
-0.0106463 0.0719991 0.0771448
-0.0103075 0.0719644 0.0767242
-0.00996703 0.07193 0.0763067
-0.00959533 0.0719001 0.0759442
-0.00920369 0.0718731 0.0756168
-0.00880655 0.071847 0.0752992
-0.00841814 0.0718195 0.0749662
-0.00805254 0.0717887 0.0745929
-0.00770593 0.0717552 0.0741862
-0.00738142 0.0717185 0.0737405
-0.00704283 0.0716838 0.0733197
-0.00669926 0.0716498 0.0729076
-0.006378 0.0716126 0.0724562
-0.00606067 0.0715748 0.0719979
-0.00576056 0.0715346 0.0715092
-0.00540797 0.0715019 0.0711129
-0.00501364 0.0714753 0.0707904
-0.00451477 0.0714639 0.070652
-0.00354496 0.0715209 0.0713438
-0.00280281 0.0715449 0.0716343
-0.00222187 0.0715454 0.0716406
-0.00170188 0.0715371 0.0715395
-0.00125322 0.0715184 0.0713127
-0.00085863 0.0714918 0.0709906
-0.00046902 0.0714645 0.0706596
-9.151E-05 0.0714355 0.0703074
0.00027558 0.0714049 0.0699367
0.00068094 0.07138 0.0696336
0.00115301 0.0713647 0.069448
