ply
format ascii 1.0
element vertex 1235
property float x
property float y
property float z
property uchar red
property uchar green
property uchar blue
end_header
0.0198597 0.115798 0.0329505 0 255 0
0.0203619 0.115774 0.0330661 0 255 0
0.020691 0.11578 0.0335205 0 255 0
0.02102 0.115786 0.0339748 0 255 0
0.0214068 0.115782 0.0343162 0 255 0
0.0217359 0.115788 0.0347705 0 255 0
0.0221227 0.115784 0.0351119 0 255 0
0.0225672 0.11577 0.0353404 0 255 0
0.022954 0.115766 0.0356818 0 255 0
0.0233985 0.115752 0.0359103 0 255 0
0.0237276 0.115758 0.0363646 0 255 0
0.0239989 0.115774 0.0369318 0 255 0
0.0244434 0.11576 0.0371603 0 255 0
0.0248879 0.115746 0.0373888 0 255 0
0.0253325 0.115732 0.0376173 0 255 0
0.0258924 0.115698 0.03762 0 255 0
0.0264524 0.115664 0.0376227 0 255 0
0.0270123 0.11563 0.0376254 0 255 0
0.0273991 0.115626 0.0379668 0 255 0
0.0277859 0.115622 0.0383082 0 255 0
0.0281727 0.115618 0.0386496 0 255 0
0.0287904 0.115573 0.0385394 0 255 0
0.0292349 0.115559 0.0387679 0 255 0
0.0297371 0.115535 0.0388835 0 255 0
0.0301816 0.115521 0.039112 0 255 0
0.0305684 0.115517 0.0394534 0 255 0
0.0310707 0.115493 0.039569 0 255 0
0.0316306 0.115459 0.0395717 0 255 0
0.0322483 0.115415 0.0394615 0 255 0
0.032866 0.115371 0.0393513 0 255 0
0.0335991 0.115307 0.0390152 0 255 0
0.0345054 0.115213 0.0383405 0 255 0
0.0351231 0.115169 0.0382303 0 255 0
0.0360294 0.115075 0.0375555 0 255 0
0.0368202 0.115001 0.0371066 0 255 0
0.0380729 0.114846 0.0357544 0 255 0
0.0385174 0.114832 0.0359829 0 255 0
0.0395391 0.114718 0.0350824 0 255 0
0.0401568 0.114674 0.0349722 0 255 0
-0.0458757 0.117867 -0.0135518 0 255 0
-0.0456043 0.117883 -0.0129846 0 255 0
-0.045333 0.117899 -0.0124174 0 255 0
-0.0448885 0.117885 -0.0121889 0 255 0
-0.044444 0.117871 -0.0119604 0 255 0
-0.0441726 0.117887 -0.0113932 0 255 0
-0.043959 0.117912 -0.0107131 0 255 0
-0.0438031 0.117948 -0.00992012 0 255 0
-0.0435895 0.117974 -0.00924001 0 255 0
-0.0432027 0.11797 -0.00889861 0 255 0
-0.0428159 0.117966 -0.00855721 0 255 0
-0.0424291 0.117962 -0.00821582 0 255 0
-0.0418692 0.117928 -0.00821311 0 255 0
-0.0414247 0.117914 -0.00798461 0 255 0
-0.0410379 0.11791 -0.00764321 0 255 0
-0.0407088 0.117915 -0.00718891 0 255 0
-0.0402066 0.117892 -0.00707331 0 255 0
-0.0397621 0.117878 -0.00684481 0 255 0
-0.0393175 0.117864 -0.00661631 0 255 0
-0.0387576 0.11783 -0.00661361 0 255 0
-0.0383708 0.117826 -0.0062722 0 255 0
-0.0376954 0.117772 -0.00649531 0 255 0
-0.0372509 0.117758 -0.00626681 0 255 0
-0.0369218 0.117764 -0.00581251 0 255 0
-0.0364773 0.11775 -0.00558401 0 255 0
-0.0359751 0.117726 -0.00546842 0 255 0
-0.0355883 0.117722 -0.005127 0 255 0
-0.0353169 0.117737 -0.00455981 0 255 0
-0.0348724 0.117723 -0.00433131 0 255 0
-0.0343757 0.118138 0.00348046 0 255 0
-0.0343929 0.118204 0.00461217 0 255 0
-0.0342948 0.118249 0.00551807 0 255 0
-0.0341389 0.118285 0.00631108 0 255 0
-0.0338098 0.118291 0.00676538 0 255 0
-0.0335557 0.118372 0.00846431 0 255 0
-0.033573 0.118438 0.009596 0 255 0
-0.0334171 0.118473 0.010389 0 255 0
-0.0332035 0.118499 0.0110691 0 255 0
-0.0329321 0.118515 0.0116363 0 255 0
-0.0326608 0.118531 0.0122035 0 255 0
-0.0323895 0.118547 0.0127707 0 255 0
-0.0321758 0.118572 0.0134508 0 255 0
-0.0319045 0.118588 0.014018 0 255 0
-0.0316332 0.118604 0.0145853 0 255 0
-0.0314773 0.11864 0.0153782 0 255 0
-0.0312636 0.118665 0.0160584 0 255 0
-0.0309923 0.118681 0.0166255 0 255 0
-0.0306055 0.118677 0.016967 0 255 0
-0.0302764 0.118683 0.0174213 0 255 0
-0.0299474 0.118689 0.0178756 0 255 0
-0.0296183 0.118695 0.0183299 0 255 0
-0.0292892 0.118701 0.0187842 0 255 0
-0.0289025 0.118697 0.0191256 0 255 0
-0.0285157 0.118692 0.019467 0 255 0
-0.0281289 0.118688 0.0198084 0 255 0
-0.0277998 0.118694 0.0202627 0 255 0
-0.0273553 0.11868 0.0204912 0 255 0
-0.0269685 0.118676 0.0208326 0 255 0
-0.0265817 0.118672 0.021174 0 255 0
-0.0261372 0.118658 0.0214025 0 255 0
-0.0256927 0.118644 0.021631 0 255 0
-0.0252482 0.11863 0.0218595 0 255 0
-0.0246882 0.118596 0.0218622 0 255 0
-0.024186 0.118572 0.0219778 0 255 0
-0.0236838 0.118548 0.0220934 0 255 0
-0.0231238 0.118514 0.0220961 0 255 0
-0.0226793 0.1185 0.0223246 0 255 0
-0.022177 0.118476 0.0224402 0 255 0
-0.0216171 0.118443 0.0224429 0 255 0
-0.0211149 0.118419 0.0225585 0 255 0
-0.0205549 0.118385 0.0225612 0 255 0
-0.0199949 0.118351 0.0225639 0 255 0
-0.0192618 0.118287 0.0222279 0 255 0
-0.0187596 0.118263 0.0223435 0 255 0
-0.0183728 0.118259 0.0226849 0 255 0
-0.0181014 0.118275 0.0232521 0 255 0
-0.0177724 0.118281 0.0237064 0 255 0
-0.0173279 0.118267 0.0239349 0 255 0
-0.0169411 0.118263 0.0242763 0 255 0
-0.0165543 0.118259 0.0246177 0 255 0
-0.0161098 0.118245 0.0248462 0 255 0
-0.0156075 0.118221 0.0249618 0 255 0
-0.0151053 0.118197 0.0250774 0 255 0
-0.0147185 0.118193 0.0254188 0 255 0
-0.0143894 0.118199 0.0258731 0 255 0
-0.0142335 0.118234 0.0266661 0 255 0
-0.0139622 0.11825 0.0272333 0 255 0
-0.0137486 0.118276 0.0279134 0 255 0
-0.0134195 0.118282 0.0283677 0 255 0
-0.0130905 0.118287 0.028822 0 255 0
-0.0127037 0.118283 0.0291634 0 255 0
-0.0123169 0.118279 0.0295048 0 255 0
-0.0119301 0.118275 0.0298462 0 255 0
-0.0115433 0.118271 0.0301876 0 255 0
-0.0110988 0.118257 0.0304161 0 255 0
-0.010712 0.118253 0.0307575 0 255 0
-0.0103252 0.118249 0.0310989 0 255 0
-0.00988069 0.118235 0.0313274 0 255 0
-0.00943618 0.118221 0.0315559 0 255 0
-0.00899167 0.118207 0.0317844 0 255 0
-0.00854716 0.118193 0.0320129 0 255 0
-0.00804492 0.118169 0.0321285 0 255 0
-0.00754268 0.118145 0.0322441 0 255 0
-0.00704045 0.118121 0.0323597 0 255 0
-0.00659594 0.118107 0.0325882 0 255 0
-0.0060937 0.118083 0.0327038 0 255 0
-0.00559146 0.118059 0.0328194 0 255 0
-0.00508923 0.118035 0.032935 0 255 0
-0.00458699 0.118011 0.0330506 0 255 0
-0.00408476 0.117987 0.0331662 0 255 0
-0.0035248 0.117954 0.0331689 0 255 0
-0.00290712 0.11791 0.0330587 0 255 0
-0.00228943 0.117866 0.0329485 0 255 0
-0.00172948 0.117832 0.0329512 0 255 0
-0.00116952 0.117798 0.0329539 0 255 0
-0.000551835 0.117754 0.0328437 0 255 0
6.5848e-05 0.11771 0.0327335 0 255 0
0.000683526 0.117667 0.0326233 0 255 0
0.00124349 0.117633 0.032626 0 255 0
0.00186117 0.117589 0.0325158 0 255 0
0.00242113 0.117555 0.0325185 0 255 0
0.00321197 0.117481 0.0320696 0 255 0
0.00382967 0.117437 0.0319594 0 255 0
0.00456279 0.117374 0.0316234 0 255 0
0.00506503 0.11735 0.031739 0 255 0
0.0056827 0.117306 0.0316288 0 255 0
0.00618494 0.117282 0.0317444 0 255 0
0.00686035 0.117228 0.0315212 0 255 0
0.00747803 0.117184 0.0314111 0 255 0
0.00815344 0.117131 0.0311879 0 255 0
0.00882884 0.117077 0.0309648 0 255 0
0.00973513 0.116983 0.0302902 0 255 0
0.0105837 0.1169 0.0297283 0 255 0
0.0112591 0.116846 0.0295052 0 255 0
0.012454 0.116703 0.028266 0 255 0
0.0132449 0.116629 0.0278171 0 255 0
0.0136317 0.116625 0.0281585 0 255 0
0.0140762 0.116611 0.028387 0 255 0
0.0145784 0.116587 0.0285026 0 255 0
0.0151384 0.116553 0.0285053 0 255 0
0.0156406 0.116529 0.0286209 0 255 0
0.0160851 0.116515 0.0288494 0 255 0
0.0165296 0.116501 0.0290779 0 255 0
0.0169742 0.116487 0.0293064 0 255 0
0.0173032 0.116493 0.0297607 0 255 0
0.01769 0.116489 0.0301021 0 255 0
0.0180191 0.116495 0.0305564 0 255 0
0.0184636 0.116481 0.0307849 0 255 0
0.0188504 0.116477 0.0311263 0 255 0
0.0191217 0.116493 0.0316935 0 255 0
0.0195085 0.116489 0.0320349 0 255 0
0.0198953 0.116484 0.0323763 0 255 0
0.0202821 0.11648 0.0327177 0 255 0
0.0206689 0.116476 0.0330591 0 255 0
0.0210557 0.116472 0.0334005 0 255 0
0.0213847 0.116478 0.0338548 0 255 0
0.0216561 0.116494 0.034422 0 255 0
0.0220429 0.11649 0.0347634 0 255 0
0.0224297 0.116486 0.0351048 0 255 0
0.0229319 0.116462 0.0352204 0 255 0
0.0233764 0.116448 0.0354489 0 255 0
0.0238209 0.116434 0.0356774 0 255 0
0.02415 0.11644 0.0361318 0 255 0
0.0245368 0.116436 0.0364731 0 255 0
0.0249813 0.116422 0.0367016 0 255 0
0.0253681 0.116418 0.037043 0 255 0
0.0258703 0.116394 0.0371586 0 255 0
0.0264303 0.11636 0.0371613 0 255 0
0.0271057 0.116306 0.0369382 0 255 0
0.0276656 0.116272 0.0369409 0 255 0
0.0281101 0.116258 0.0371694 0 255 0
0.0284969 0.116254 0.0375108 0 255 0
0.0289414 0.11624 0.0377393 0 255 0
0.0292128 0.116256 0.0383065 0 255 0
0.0296573 0.116242 0.038535 0 255 0
0.0302173 0.116208 0.0385377 0 255 0
0.0307772 0.116174 0.0385405 0 255 0
0.031164 0.11617 0.0388818 0 255 0
0.0316085 0.116156 0.0391103 0 255 0
0.0321685 0.116122 0.0391131 0 255 0
0.0326707 0.116098 0.0392287 0 255 0
0.0334038 0.116034 0.0388926 0 255 0
0.0343101 0.115941 0.0382179 0 255 0
0.0349278 0.115897 0.0381077 0 255 0
0.0355455 0.115853 0.0379975 0 255 0
0.0364518 0.11576 0.0373228 0 255 0
0.0377622 0.115596 0.0358578 0 255 0
0.0383798 0.115553 0.0357476 0 255 0
0.039113 0.115489 0.0354116 0 255 0
0.0398461 0.115425 0.0350756 0 255 0
-0.0452223 0.118518 -0.0142359 0 255 0
-0.0448933 0.118524 -0.0137816 0 255 0
-0.0446219 0.118539 -0.0132144 0 255 0
-0.0443506 0.118555 -0.0126472 0 255 0
-0.0440215 0.11856 -0.0121929 0 255 0
-0.0437502 0.118576 -0.0116257 0 255 0
-0.0434211 0.118582 -0.0111714 0 255 0
-0.0432075 0.118607 -0.0104913 0 255 0
-0.0428784 0.118613 -0.0100371 0 255 0
-0.0426648 0.118638 -0.00935697 0 255 0
-0.042278 0.118634 -0.00901556 0 255 0
-0.0415449 0.118571 -0.00935156 0 255 0
-0.0412158 0.118577 -0.00889725 0 255 0
-0.0408868 0.118582 -0.00844296 0 255 0
-0.0406154 0.118598 -0.00787578 0 255 0
-0.0401709 0.118584 -0.00764728 0 255 0
-0.0396687 0.11856 -0.00753166 0 255 0
-0.0392242 0.118546 -0.00730316 0 255 0
-0.0387797 0.118532 -0.00707466 0 255 0
-0.0383929 0.118528 -0.00673328 0 255 0
-0.0376597 0.118464 -0.00706925 0 255 0
-0.0372152 0.11845 -0.00684075 0 255 0
-0.036713 0.118427 -0.00672515 0 255 0
-0.036153 0.118393 -0.00672244 0 255 0
-0.0357662 0.118389 -0.00638105 0 255 0
-0.0353795 0.118385 -0.00603965 0 255 0
-0.0351658 0.11841 -0.00535956 0 255 0
-0.0343573 0.118891 0.00403797 0 255 0
-0.0342014 0.118926 0.00483096 0 255 0
-0.0340455 0.118962 0.00562396 0 255 0
-0.0335201 0.119058 0.00789002 0 255 0
-0.0335374 0.119123 0.00902171 0 255 0
-0.0333815 0.119158 0.00981468 0 255 0
-0.0331679 0.119183 0.0104948 0 255 0
-0.0328965 0.119199 0.011062 0 255 0
-0.0325675 0.119205 0.0115163 0 255 0
-0.0323539 0.11923 0.0121964 0 255 0
-0.0319671 0.119226 0.0125377 0 255 0
-0.0318689 0.119271 0.0134436 0 255 0
-0.031713 0.119306 0.0142366 0 255 0
-0.0315571 0.119342 0.0150296 0 255 0
-0.0313435 0.119367 0.0157097 0 255 0
-0.0310722 0.119383 0.0162769 0 255 0
-0.0306854 0.119378 0.0166183 0 255 0
-0.030414 0.119394 0.0171855 0 255 0
-0.030085 0.1194 0.0176398 0 255 0
-0.0297559 0.119405 0.0180941 0 255 0
-0.0294268 0.119411 0.0185484 0 255 0
-0.0290401 0.119407 0.0188898 0 255 0
-0.0286533 0.119403 0.0192312 0 255 0
-0.0283242 0.119409 0.0196855 0 255 0
-0.0279374 0.119404 0.0200269 0 255 0
-0.0275506 0.1194 0.0203683 0 255 0
-0.0271638 0.119396 0.0207096 0 255 0
-0.0267193 0.119382 0.0209381 0 255 0
-0.0263325 0.119378 0.0212795 0 255 0
-0.0258303 0.119354 0.0213951 0 255 0
-0.0253281 0.11933 0.0215108 0 255 0
-0.0248258 0.119306 0.0216264 0 255 0
-0.0243813 0.119292 0.0218549 0 255 0
-0.0238791 0.119268 0.0219705 0 255 0
-0.0233191 0.119235 0.0219732 0 255 0
-0.0228746 0.119221 0.0222017 0 255 0
-0.0222569 0.119177 0.0220915 0 255 0
-0.0217547 0.119153 0.0222071 0 255 0
-0.021137 0.11911 0.0220969 0 255 0
-0.0206925 0.119096 0.0223254 0 255 0
-0.0199594 0.119032 0.0219894 0 255 0
-0.0193417 0.118989 0.0218792 0 255 0
-0.0190126 0.118994 0.0223335 0 255 0
-0.0186835 0.119 0.0227878 0 255 0
-0.0184122 0.119016 0.023355 0 255 0
-0.0180254 0.119012 0.0236964 0 255 0
-0.0176963 0.119017 0.0241507 0 255 0
-0.0172518 0.119003 0.0243792 0 255 0
-0.0168073 0.118989 0.0246077 0 255 0
-0.0164205 0.118985 0.0249491 0 255 0
-0.015976 0.118971 0.0251776 0 255 0
-0.0154738 0.118947 0.0252932 0 255 0
-0.0148561 0.118904 0.025183 0 255 0
-0.0144116 0.11889 0.0254115 0 255 0
-0.0140825 0.118895 0.0258658 0 255 0
-0.0138689 0.118921 0.0265459 0 255 0
-0.0136553 0.118946 0.027226 0 255 0
-0.0133839 0.118962 0.0277932 0 255 0
-0.0130549 0.118968 0.0282475 0 255 0
-0.0127258 0.118973 0.0287018 0 255 0
-0.012339 0.118969 0.0290431 0 255 0
-0.01201 0.118975 0.0294974 0 255 0
-0.0116809 0.118981 0.0299517 0 255 0
-0.0112941 0.118976 0.0302931 0 255 0
-0.0108496 0.118962 0.0305216 0 255 0
-0.0104628 0.118958 0.030863 0 255 0
-0.010076 0.118954 0.0312044 0 255 0
-0.00963151 0.11894 0.0314329 0 255 0
-0.009187 0.118926 0.0316614 0 255 0
-0.00874249 0.118912 0.0318899 0 255 0
-0.00829798 0.118898 0.0321184 0 255 0
-0.00779574 0.118874 0.032234 0 255 0
-0.00735123 0.11886 0.0324625 0 255 0
-0.00684898 0.118836 0.0325781 0 255 0
-0.00634676 0.118812 0.0326938 0 255 0
-0.00584452 0.118789 0.0328094 0 255 0
-0.00534228 0.118765 0.032925 0 255 0
-0.00478232 0.118731 0.0329277 0 255 0
-0.00433781 0.118717 0.0331562 0 255 0
-0.00372013 0.118673 0.033046 0 255 0
-0.00321789 0.118649 0.0331616 0 255 0
-0.00260021 0.118606 0.0330514 0 255 0
-0.00198253 0.118562 0.0329412 0 255 0
-0.00136483 0.118519 0.032831 0 255 0
-0.000862604 0.118495 0.0329466 0 255 0
-0.000244922 0.118451 0.0328364 0 255 0
0.00037277 0.118408 0.0327262 0 255 0
0.000990452 0.118364 0.032616 0 255 0
0.0015504 0.11833 0.0326187 0 255 0
0.00211037 0.118297 0.0326214 0 255 0
0.00278578 0.118243 0.0323983 0 255 0
0.00340346 0.118199 0.0322882 0 255 0
0.00425204 0.118116 0.0317264 0 255 0
0.00498516 0.118053 0.0313904 0 255 0
0.00560286 0.11801 0.0312802 0 255 0
0.00604737 0.117996 0.0315087 0 255 0
0.00660733 0.117962 0.0315114 0 255 0
0.00722501 0.117918 0.0314012 0 255 0
0.00790042 0.117865 0.0311781 0 255 0
0.00857583 0.117811 0.030955 0 255 0
0.00936668 0.117738 0.0305062 0 255 0
0.0102153 0.117655 0.0299444 0 255 0
0.0110061 0.117582 0.0294955 0 255 0
0.0117392 0.117519 0.0291595 0 255 0
0.0131651 0.117337 0.0274687 0 255 0
0.0135519 0.117333 0.0278101 0 255 0
0.0139386 0.117329 0.0281515 0 255 0
0.0144409 0.117305 0.0282671 0 255 0
0.0150008 0.117271 0.0282699 0 255 0
0.0155031 0.117247 0.0283855 0 255 0
0.016063 0.117213 0.0283882 0 255 0
0.0165075 0.117199 0.0286167 0 255 0
0.0169521 0.117185 0.0288452 0 255 0
0.0173388 0.117181 0.0291866 0 255 0
0.0177256 0.117177 0.029528 0 255 0
0.0181124 0.117173 0.0298694 0 255 0
0.0184992 0.117169 0.0302107 0 255 0
0.0188283 0.117175 0.0306651 0 255 0
0.0190996 0.11719 0.0312322 0 255 0
0.0194287 0.117196 0.0316865 0 255 0
0.0198155 0.117192 0.0320279 0 255 0
0.0202023 0.117188 0.0323693 0 255 0
0.0206468 0.117174 0.0325978 0 255 0
0.0210336 0.117169 0.0329392 0 255 0
0.0214204 0.117165 0.0332806 0 255 0
0.0217494 0.117171 0.0337349 0 255 0
0.0220208 0.117186 0.0343021 0 255 0
0.0224653 0.117172 0.0345306 0 255 0
0.0229098 0.117158 0.0347591 0 255 0
0.023412 0.117135 0.0348747 0 255 0
0.0238565 0.117121 0.0351032 0 255 0
0.0243588 0.117097 0.0352188 0 255 0
0.0247456 0.117093 0.0355602 0 255 0
0.0250746 0.117098 0.0360145 0 255 0
0.0255191 0.117084 0.036243 0 255 0
0.0259059 0.11708 0.0365844 0 255 0
0.0265813 0.117027 0.0363613 0 255 0
0.027199 0.116983 0.0362511 0 255 0
0.0277012 0.116959 0.0363667 0 255 0
0.0281458 0.116945 0.0365952 0 255 0
0.0285903 0.116931 0.0368237 0 255 0
0.0290348 0.116917 0.0370522 0 255 0
0.0293638 0.116923 0.0375065 0 255 0
0.0298661 0.116899 0.0376221 0 255 0
0.0303683 0.116875 0.0377377 0 255 0
0.0308706 0.116851 0.0378533 0 255 0
0.0313728 0.116827 0.0379689 0 255 0
0.0318173 0.116813 0.0381974 0 255 0
0.0321464 0.116819 0.0386518 0 255 0
0.0325909 0.116805 0.0388803 0 255 0
0.0331508 0.116771 0.0388829 0 255 0
0.034288 0.116639 0.0377567 0 255 0
0.0347903 0.116615 0.0378723 0 255 0
0.0352348 0.116601 0.0381008 0 255 0
0.0361411 0.116508 0.0374261 0 255 0
0.0369897 0.116425 0.0368643 0 255 0
0.0382423 0.116273 0.0355123 0 255 0
0.0387446 0.116249 0.0356279 0 255 0
0.0395931 0.116166 0.0350661 0 255 0
-0.0438127 0.119225 -0.0131055 0 255 0
-0.0436568 0.11926 -0.0123125 0 255 0
-0.0433277 0.119266 -0.0118582 0 255 0
-0.0428832 0.119252 -0.0116297 0 255 0
-0.042381 0.119228 -0.0115141 0 255 0
-0.0418787 0.119204 -0.0113985 0 255 0
-0.0414342 0.11919 -0.01117 0 255 0
-0.0411629 0.119206 -0.0106028 0 255 0
-0.041007 0.119241 -0.00980985 0 255 0
-0.0407357 0.119256 -0.00924266 0 255 0
-0.0404643 0.119271 -0.0086755 0 255 0
-0.0399621 0.119247 -0.00855989 0 255 0
-0.0395753 0.119243 -0.0082185 0 255 0
-0.0391308 0.119229 -0.00798999 0 255 0
-0.038744 0.119225 -0.00764859 0 255 0
-0.0383572 0.119221 -0.00730721 0 255 0
-0.0375663 0.119148 -0.00775607 0 255 0
-0.0371796 0.119144 -0.00741466 0 255 0
-0.0367351 0.11913 -0.00718616 0 255 0
-0.0362905 0.119116 -0.00695766 0 255 0
-0.0357306 0.119082 -0.00695495 0 255 0
-0.0352861 0.119068 -0.00672645 0 255 0
-0.0350147 0.119084 -0.00615927 0 255 0
-0.0342062 0.11956 0.00323803 0 255 0
-0.0341658 0.119614 0.00425678 0 255 0
-0.0338945 0.119629 0.00482396 0 255 0
-0.0334268 0.119734 0.00720287 0 255 0
-0.0334441 0.119798 0.00833453 0 255 0
-0.0333459 0.119843 0.00924038 0 255 0
-0.0331323 0.119868 0.00992045 0 255 0
-0.0328032 0.119874 0.0103747 0 255 0
-0.0325319 0.119889 0.0109419 0 255 0
-0.0323183 0.119914 0.011622 0 255 0
-0.0319892 0.11992 0.0120763 0 255 0
-0.0317756 0.119945 0.0127564 0 255 0
-0.0317351 0.119999 0.0137751 0 255 0
-0.0315793 0.120034 0.0145681 0 255 0
-0.0313656 0.120059 0.0152482 0 255 0
-0.0310943 0.120075 0.0158153 0 255 0
-0.0307652 0.12008 0.0162696 0 255 0
-0.0304939 0.120095 0.0168368 0 255 0
-0.0301648 0.120101 0.0172911 0 255 0
-0.0298358 0.120107 0.0177454 0 255 0
-0.0295067 0.120112 0.0181997 0 255 0
-0.0291776 0.120118 0.018654 0 255 0
-0.0287909 0.120113 0.0189954 0 255 0
-0.0284618 0.120119 0.0194496 0 255 0
-0.028075 0.120115 0.019791 0 255 0
-0.0276882 0.120111 0.0201324 0 255 0
-0.0272437 0.120097 0.0203609 0 255 0
-0.0268569 0.120092 0.0207023 0 255 0
-0.0264124 0.120078 0.0209308 0 255 0
-0.0259679 0.120064 0.0211593 0 255 0
-0.0254657 0.12004 0.0212749 0 255 0
-0.0249634 0.120017 0.0213905 0 255 0
-0.0245189 0.120003 0.021619 0 255 0
-0.0240167 0.119979 0.0217346 0 255 0
-0.0234567 0.119945 0.0217374 0 255 0
-0.0229545 0.119922 0.021853 0 255 0
-0.0223945 0.119888 0.0218557 0 255 0
-0.0218345 0.119854 0.0218584 0 255 0
-0.0212169 0.119811 0.0217482 0 255 0
-0.0207146 0.119787 0.0218638 0 255 0
-0.0199815 0.119724 0.0215279 0 255 0
-0.019537 0.11971 0.0217564 0 255 0
-0.0192656 0.119726 0.0223235 0 255 0
-0.0189943 0.119741 0.0228907 0 255 0
-0.018723 0.119756 0.0234579 0 255 0
-0.0183362 0.119752 0.0237993 0 255 0
-0.0180071 0.119758 0.0242536 0 255 0
-0.0176203 0.119753 0.024595 0 255 0
-0.0172335 0.119749 0.0249364 0 255 0
-0.016789 0.119735 0.0251649 0 255 0
-0.0163445 0.119721 0.0253934 0 255 0
-0.0159 0.119707 0.0256219 0 255 0
-0.01534 0.119674 0.0256246 0 255 0
-0.0147801 0.11964 0.0256273 0 255 0
-0.0142778 0.119616 0.0257429 0 255 0
-0.0138333 0.119602 0.0259714 0 255 0
-0.0135043 0.119608 0.0264257 0 255 0
-0.0132329 0.119623 0.0269929 0 255 0
-0.0129616 0.119638 0.0275601 0 255 0
-0.0126325 0.119644 0.0280144 0 255 0
-0.0123612 0.119659 0.0285815 0 255 0
-0.0120321 0.119665 0.0290358 0 255 0
-0.0117031 0.11967 0.0294901 0 255 0
-0.011374 0.119676 0.0299444 0 255 0
-0.0109295 0.119662 0.0301729 0 255 0
-0.0106004 0.119667 0.0306272 0 255 0
-0.0102136 0.119663 0.0309686 0 255 0
-0.00976912 0.119649 0.0311971 0 255 0
-0.00938233 0.119645 0.0315385 0 255 0
-0.00893782 0.119631 0.031767 0 255 0
-0.0084933 0.119617 0.0319955 0 255 0
-0.00799107 0.119593 0.0321111 0 255 0
-0.00754655 0.119579 0.0323396 0 255 0
-0.00704432 0.119555 0.0324552 0 255 0
-0.00665753 0.119551 0.0327966 0 255 0
-0.00609757 0.119518 0.0327993 0 255 0
-0.00553761 0.119484 0.032802 0 255 0
-0.00509309 0.11947 0.0330305 0 255 0
-0.00447541 0.119427 0.0329203 0 255 0
-0.00397317 0.119403 0.0330359 0 255 0
-0.00347094 0.119379 0.0331515 0 255 0
-0.00291097 0.119346 0.0331542 0 255 0
-0.00229329 0.119302 0.0330441 0 255 0
-0.00156015 0.119239 0.0327081 0 255 0
-0.00111564 0.119225 0.0329366 0 255 0
-0.000497956 0.119182 0.0328264 0 255 0
6.20015e-05 0.119148 0.0328291 0 255 0
0.000737413 0.119095 0.0326061 0 255 0
0.0013551 0.119052 0.0324959 0 255 0
0.00191506 0.119018 0.0324986 0 255 0
0.00247502 0.118985 0.0325013 0 255 0
0.00315043 0.118932 0.0322782 0 255 0
0.00371039 0.118898 0.0322809 0 255 0
0.00455898 0.118815 0.0317192 0 255 0
0.0052921 0.118753 0.0313832 0 255 0
0.00590979 0.118709 0.031273 0 255 0
0.00646976 0.118676 0.0312758 0 255 0
0.00708744 0.118632 0.0311656 0 255 0
0.00770512 0.118589 0.0310554 0 255 0
0.0083228 0.118546 0.0309452 0 255 0
0.00911367 0.118473 0.0304964 0 255 0
0.00990453 0.1184 0.0300475 0 255 0
0.0105222 0.118357 0.0299373 0 255 0
0.0114863 0.118255 0.0291498 0 255 0
0.0123925 0.118163 0.0284751 0 255 0
0.013472 0.118041 0.0274618 0 255 0
0.0138011 0.118046 0.0279161 0 255 0
0.0143033 0.118023 0.0280317 0 255 0
0.0148633 0.117989 0.0280344 0 255 0
0.015481 0.117946 0.0279242 0 255 0
0.0159832 0.117922 0.0280398 0 255 0
0.0165432 0.117888 0.0280426 0 255 0
0.01693 0.117884 0.0283839 0 255 0
0.0173168 0.11788 0.0287253 0 255 0
0.0177035 0.117876 0.0290667 0 255 0
0.0180903 0.117871 0.0294081 0 255 0
0.0184771 0.117867 0.0297495 0 255 0
0.0188062 0.117873 0.0302038 0 255 0
0.0191352 0.117878 0.0306581 0 255 0
0.0194643 0.117884 0.0311124 0 255 0
0.0197934 0.117889 0.0315667 0 255 0
0.0201802 0.117885 0.0319081 0 255 0
0.0206247 0.117871 0.0321366 0 255 0
0.0210692 0.117857 0.0323651 0 255 0
0.021456 0.117853 0.0327064 0 255 0
0.021785 0.117859 0.0331607 0 255 0
0.0221718 0.117854 0.0335021 0 255 0
0.0225586 0.11785 0.0338435 0 255 0
0.0230031 0.117836 0.034072 0 255 0
0.0234476 0.117822 0.0343005 0 255 0
0.0238344 0.117818 0.0346419 0 255 0
0.0243944 0.117784 0.0346446 0 255 0
0.0250698 0.117731 0.0344216 0 255 0
0.0256298 0.117698 0.0344243 0 255 0
0.0259011 0.117713 0.0349915 0 255 0
0.0262879 0.117709 0.0353328 0 255 0
0.0266747 0.117704 0.0356743 0 255 0
0.0271769 0.117681 0.0357899 0 255 0
0.0276214 0.117667 0.0360184 0 255 0
0.0280659 0.117653 0.0362469 0 255 0
0.0286836 0.117609 0.0361367 0 255 0
0.0292436 0.117576 0.0361394 0 255 0
0.0296304 0.117571 0.0364808 0 255 0
0.0299594 0.117577 0.0369351 0 255 0
0.0304617 0.117553 0.0370507 0 255 0
0.0309639 0.117529 0.0371663 0 255 0
0.0314084 0.117515 0.0373948 0 255 0
0.0319684 0.117482 0.0373975 0 255 0
0.0331633 0.117341 0.0361584 0 255 0
0.0335501 0.117336 0.0364998 0 255 0
0.0337637 0.117362 0.0371799 0 255 0
0.0343237 0.117328 0.0371826 0 255 0
0.0346527 0.117334 0.0376369 0 255 0
0.035155 0.11731 0.0377524 0 255 0
0.0360036 0.117227 0.0371907 0 255 0
0.0367367 0.117164 0.0368547 0 255 0
0.0381625 0.116984 0.035164 0 255 0
0.0385493 0.11698 0.0355054 0 255 0
-0.0431593 0.119878 -0.0137895 0 255 0
-0.0427148 0.119864 -0.013561 0 255 0
-0.0425589 0.119898 -0.012768 0 255 0
-0.0422876 0.119913 -0.0122008 0 255 0
-0.0418431 0.119899 -0.0119723 0 255 0
-0.0413986 0.119885 -0.0117438 0 255 0
-0.040954 0.119871 -0.0115153 0 255 0
-0.0405673 0.119867 -0.011174 0 255 0
-0.0402382 0.119872 -0.0107197 0 255 0
-0.0402555 0.119936 -0.00958806 0 255 0
-0.0395223 0.119873 -0.00992401 0 255 0
-0.0393087 0.119898 -0.00924395 0 255 0
-0.0389219 0.119894 -0.00890255 0 255 0
-0.0385352 0.119889 -0.00856116 0 255 0
-0.0378597 0.119837 -0.00878422 0 255 0
-0.0374152 0.119823 -0.00855572 0 255 0
-0.0370284 0.119818 -0.00821433 0 255 0
-0.0365262 0.119795 -0.00809872 0 255 0
-0.0361971 0.1198 -0.00764445 0 255 0
-0.0355795 0.119757 -0.00775461 0 255 0
-0.0351349 0.119743 -0.00752611 0 255 0
-0.0349213 0.119768 -0.00684605 0 255 0
-0.0344768 0.119754 -0.00661755 0 255 0
-0.0340147 0.120283 0.00345685 0 255 0
-0.0333912 0.120421 0.00662864 0 255 0
-0.0333507 0.120475 0.00764737 0 255 0
-0.0331948 0.120509 0.00844034 0 255 0
-0.0329812 0.120534 0.0091204 0 255 0
-0.0327099 0.120549 0.00968757 0 255 0
-0.0324963 0.120574 0.0103676 0 255 0
-0.0321672 0.120579 0.0108219 0 255 0
-0.0318959 0.120595 0.0113891 0 255 0
-0.0318554 0.120648 0.0124078 0 255 0
-0.0317573 0.120693 0.0133136 0 255 0
-0.0316014 0.120727 0.0141066 0 255 0
-0.0313301 0.120742 0.0146738 0 255 0
-0.0310587 0.120757 0.0152409 0 255 0
-0.0308451 0.120782 0.015921 0 255 0
-0.030516 0.120788 0.0163753 0 255 0
-0.0302447 0.120803 0.0169424 0 255 0
-0.0299156 0.120808 0.0173967 0 255 0
-0.0295866 0.120813 0.017851 0 255 0
-0.0292575 0.120819 0.0183053 0 255 0
-0.0289284 0.120824 0.0187596 0 255 0
-0.0285994 0.12083 0.0192139 0 255 0
-0.0281549 0.120816 0.0194424 0 255 0
-0.0278258 0.120821 0.0198966 0 255 0
-0.0273813 0.120807 0.0201251 0 255 0
-0.0269945 0.120803 0.0204665 0 255 0
-0.02655 0.120789 0.020695 0 255 0
-0.0260478 0.120765 0.0208106 0 255 0
-0.0256033 0.120751 0.0210391 0 255 0
-0.0251587 0.120737 0.0212676 0 255 0
-0.0246565 0.120713 0.0213832 0 255 0
-0.0240965 0.12068 0.021386 0 255 0
-0.0235366 0.120646 0.0213887 0 255 0
-0.0229766 0.120613 0.0213914 0 255 0
-0.0224744 0.120589 0.021507 0 255 0
-0.021799 0.120536 0.0212839 0 255 0
-0.021239 0.120503 0.0212867 0 255 0
-0.020679 0.12047 0.0212894 0 255 0
-0.0202345 0.120456 0.0215179 0 255 0
-0.0198477 0.120451 0.0218593 0 255 0
-0.0196341 0.120476 0.0225393 0 255 0
-0.0194205 0.120501 0.0232194 0 255 0
-0.0190915 0.120506 0.0236737 0 255 0
-0.0187624 0.120512 0.024128 0 255 0
-0.0183179 0.120498 0.0243565 0 255 0
-0.0179888 0.120503 0.0248107 0 255 0
-0.0175443 0.120489 0.0250392 0 255 0
-0.0172152 0.120494 0.0254935 0 255 0
-0.0167707 0.12048 0.025722 0 255 0
-0.0162685 0.120457 0.0258376 0 255 0
-0.0158817 0.120452 0.026179 0 255 0
-0.0153795 0.120429 0.0262946 0 255 0
-0.0148772 0.120405 0.0264102 0 255 0
-0.0143173 0.120372 0.026413 0 255 0
-0.0136996 0.120328 0.0263028 0 255 0
-0.0131396 0.120295 0.0263055 0 255 0
-0.0128683 0.12031 0.0268727 0 255 0
-0.0125392 0.120315 0.027327 0 255 0
-0.0123256 0.12034 0.028007 0 255 0
-0.0119965 0.120346 0.0284613 0 255 0
-0.0116675 0.120351 0.0289156 0 255 0
-0.0113384 0.120356 0.0293699 0 255 0
-0.0110094 0.120362 0.0298242 0 255 0
-0.0106803 0.120367 0.0302784 0 255 0
-0.0102935 0.120363 0.0306198 0 255 0
-0.009849 0.120349 0.0308483 0 255 0
-0.00946221 0.120345 0.0311897 0 255 0
-0.00913315 0.12035 0.031644 0 255 0
-0.00868864 0.120336 0.0318725 0 255 0
-0.0081864 0.120312 0.0319881 0 255 0
-0.00774189 0.120298 0.0322166 0 255 0
-0.00723964 0.120275 0.0323322 0 255 0
-0.00685286 0.12027 0.0326736 0 255 0
-0.0062929 0.120237 0.0326763 0 255 0
-0.00579066 0.120213 0.0327919 0 255 0
-0.00534615 0.120199 0.0330204 0 255 0
-0.00478619 0.120166 0.0330232 0 255 0
-0.00422623 0.120132 0.0330259 0 255 0
-0.00372399 0.120109 0.0331415 0 255 0
-0.00316403 0.120075 0.0331442 0 255 0
-0.00254634 0.120032 0.033034 0 255 0
-0.00192866 0.119989 0.0329239 0 255 0
-0.00131096 0.119946 0.0328137 0 255 0
-0.000751001 0.119912 0.0328164 0 255 0
-0.000133314 0.119869 0.0327063 0 255 0
0.000484368 0.119826 0.0325961 0 255 0
0.00115978 0.119773 0.032373 0 255 0
0.00171975 0.11974 0.0323757 0 255 0
0.00227971 0.119707 0.0323785 0 255 0
0.00283967 0.119673 0.0323812 0 255 0
0.00351508 0.11962 0.0321581 0 255 0
0.00413277 0.119577 0.032048 0 255 0
0.00486591 0.119515 0.031712 0 255 0
0.00565678 0.119442 0.0312632 0 255 0
0.00644763 0.11937 0.0308143 0 255 0
0.00706532 0.119327 0.0307042 0 255 0
0.00750983 0.119313 0.0309327 0 255 0
0.00824298 0.119251 0.0305967 0 255 0
0.00886066 0.119207 0.0304865 0 255 0
0.00965152 0.119135 0.0300377 0 255 0
0.0103269 0.119082 0.0298147 0 255 0
0.0112332 0.118991 0.02914 0 255 0
0.0121396 0.118899 0.0284654 0 255 0
0.0133345 0.118759 0.0272264 0 255 0
0.013779 0.118745 0.0274549 0 255 0
0.0142235 0.118731 0.0276834 0 255 0
0.014668 0.118717 0.0279119 0 255 0
0.0152857 0.118674 0.0278017 0 255 0
0.0159034 0.118631 0.0276915 0 255 0
0.0164634 0.118597 0.0276942 0 255 0
0.0169079 0.118583 0.0279227 0 255 0
0.0172947 0.118579 0.0282641 0 255 0
0.0177392 0.118565 0.0284926 0 255 0
0.018126 0.118561 0.028834 0 255 0
0.018455 0.118566 0.0292883 0 255 0
0.0188418 0.118562 0.0296297 0 255 0
0.0192286 0.118558 0.0299711 0 255 0
0.0195577 0.118563 0.0304254 0 255 0
0.0199444 0.118559 0.0307668 0 255 0
0.0202735 0.118564 0.031221 0 255 0
0.0206603 0.11856 0.0315624 0 255 0
0.0211048 0.118546 0.0317909 0 255 0
0.0216071 0.118522 0.0319065 0 255 0
0.0219938 0.118518 0.0322479 0 255 0
0.0224961 0.118494 0.0323635 0 255 0
0.0227097 0.118519 0.0330436 0 255 0
0.0231542 0.118505 0.0332721 0 255 0
0.0238873 0.118442 0.0329361 0 255 0
0.0241587 0.118457 0.0335033 0 255 0
0.0245455 0.118453 0.0338447 0 255 0
0.0251054 0.11842 0.0338474 0 255 0
0.0256077 0.118396 0.033963 0 255 0
0.0259945 0.118392 0.0343044 0 255 0
0.026439 0.118378 0.0345329 0 255 0
0.0267103 0.118393 0.0351001 0 255 0
0.0271548 0.118379 0.0353286 0 255 0
0.027657 0.118355 0.0354442 0 255 0
0.028217 0.118322 0.0354469 0 255 0
0.028777 0.118288 0.0354496 0 255 0
0.0293369 0.118255 0.0354524 0 255 0
0.0299546 0.118212 0.0353422 0 255 0
0.0312073 0.118062 0.0339902 0 255 0
0.0315364 0.118067 0.0344445 0 255 0
0.0311727 0.118189 0.0362535 0 255 0
0.0315595 0.118185 0.0365949 0 255 0
0.0327544 0.118044 0.0353558 0 255 0
0.0331989 0.11803 0.0355843 0 255 0
0.033528 0.118036 0.0360386 0 255 0
0.0339725 0.118022 0.0362671 0 255 0
0.0345325 0.117988 0.0362698 0 255 0
0.0345729 0.118042 0.0372885 0 255 0
0.0353638 0.11797 0.0368397 0 255 0
0.0360392 0.117917 0.0366166 0 255 0
0.0367146 0.117864 0.0363936 0 255 0
0.0382559 0.117666 0.0344772 0 255 0
-0.0419633 0.120561 -0.0133391 0 255 0
-0.0409011 0.120504 -0.0132208 0 255 0
-0.0403584 0.120533 -0.0120864 0 255 0
-0.0400871 0.120548 -0.0115193 0 255 0
-0.0396426 0.120534 -0.0112908 0 255 0
-0.0392558 0.12053 -0.0109494 0 255 0
-0.0387535 0.120506 -0.0108338 0 255 0
-0.0383667 0.120502 -0.0104924 0 255 0
-0.0378068 0.120469 -0.0104897 0 255 0
-0.0373623 0.120455 -0.0102612 0 255 0
-0.0370332 0.12046 -0.00980687 0 255 0
-0.0363578 0.120407 -0.0100299 0 255 0
-0.0361442 0.120432 -0.00934987 0 255 0
-0.0357574 0.120427 -0.0090085 0 255 0
-0.0351974 0.120394 -0.00900576 0 255 0
-0.0349838 0.120419 -0.00832572 0 255 0
-0.0347702 0.120443 -0.00764567 0 255 0
-0.034268 0.120419 -0.00753006 0 255 0
-0.0333555 0.121108 0.00605446 0 255 0
-0.0333151 0.121162 0.00707316 0 255 0
-0.0331592 0.121196 0.0078661 0 255 0
-0.0328879 0.121211 0.00843326 0 255 0
-0.0326743 0.121235 0.0091133 0 255 0
-0.0324607 0.12126 0.00979335 0 255 0
-0.0320739 0.121255 0.0101347 0 255 0
-0.031918 0.121289 0.0109277 0 255 0
-0.0318776 0.121343 0.0119464 0 255 0
-0.0317217 0.121377 0.0127393 0 255 0
-0.0315658 0.121411 0.0135322 0 255 0
-0.0313522 0.121435 0.0142123 0 255 0
-0.0310809 0.12145 0.0147794 0 255 0
-0.0308095 0.121465 0.0153466 0 255 0
-0.0305959 0.12149 0.0160266 0 255 0
-0.0302668 0.121495 0.0164809 0 255 0
-0.0299378 0.1215 0.0169352 0 255 0
-0.0296664 0.121515 0.0175023 0 255 0
-0.0293374 0.12152 0.0179566 0 255 0
-0.0290083 0.121525 0.0184109 0 255 0
-0.0286793 0.121531 0.0188652 0 255 0
-0.0282925 0.121526 0.0192066 0 255 0
-0.0279057 0.121522 0.0195479 0 255 0
-0.0275189 0.121518 0.0198893 0 255 0
-0.0271321 0.121513 0.0202307 0 255 0
-0.0266876 0.121499 0.0204592 0 255 0
-0.0261276 0.121466 0.0204619 0 255 0
-0.0256831 0.121452 0.0206904 0 255 0
-0.0252386 0.121438 0.0209189 0 255 0
-0.0246786 0.121405 0.0209217 0 255 0
-0.0242341 0.121391 0.0211502 0 255 0
-0.0236742 0.121357 0.0211529 0 255 0
-0.0230565 0.121314 0.0210427 0 255 0
-0.0224388 0.121272 0.0209326 0 255 0
-0.0218788 0.121238 0.0209353 0 255 0
-0.0213766 0.121215 0.0210509 0 255 0
-0.0208744 0.121191 0.0211665 0 255 0
-0.020603 0.121206 0.0217337 0 255 0
-0.0203317 0.121221 0.0223009 0 255 0
-0.0200604 0.121236 0.022868 0 255 0
-0.0198467 0.12126 0.0235481 0 255 0
-0.0195754 0.121275 0.0241152 0 255 0
-0.0191886 0.121271 0.0244566 0 255 0
-0.0188018 0.121266 0.024798 0 255 0
-0.018415 0.121262 0.0251394 0 255 0
-0.0180283 0.121257 0.0254808 0 255 0
-0.0175837 0.121243 0.0257093 0 255 0
-0.017197 0.121239 0.0260507 0 255 0
-0.0167524 0.121225 0.0262792 0 255 0
-0.0163079 0.121211 0.0265077 0 255 0
-0.0158634 0.121197 0.0267362 0 255 0
-0.0154189 0.121183 0.0269647 0 255 0
-0.0149167 0.121159 0.0270803 0 255 0
-0.0144722 0.121145 0.0273088 0 255 0
-0.0139699 0.121122 0.0274244 0 255 0
-0.0130636 0.121031 0.0267498 0 255 0
-0.0125036 0.120997 0.0267525 0 255 0
-0.0122323 0.121012 0.0273197 0 255 0
-0.0119032 0.121018 0.027774 0 255 0
-0.0116319 0.121032 0.0283411 0 255 0
-0.0113028 0.121038 0.0287954 0 255 0
-0.0110315 0.121052 0.0293625 0 255 0
-0.0106447 0.121048 0.0297039 0 255 0
-0.0103157 0.121053 0.0301582 0 255 0
-0.00992887 0.121049 0.0304996 0 255 0
-0.00954209 0.121045 0.030841 0 255 0
-0.00921302 0.12105 0.0312952 0 255 0
-0.00882624 0.121045 0.0316366 0 255 0
-0.00826628 0.121012 0.0316394 0 255 0
-0.00793721 0.121017 0.0320936 0 255 0
-0.00743498 0.120994 0.0322092 0 255 0
-0.00704819 0.120989 0.0325506 0 255 0
-0.00648823 0.120956 0.0325534 0 255 0
-0.00598599 0.120932 0.032669 0 255 0
-0.00559921 0.120928 0.0330104 0 255 0
-0.00503924 0.120895 0.0330131 0 255 0
-0.00442155 0.120852 0.0329029 0 255 0
-0.00397704 0.120838 0.0331314 0 255 0
-0.00335935 0.120795 0.0330213 0 255 0
-0.00279939 0.120762 0.033024 0 255 0
-0.00223942 0.120729 0.0330267 0 255 0
-0.00162174 0.120686 0.0329166 0 255 0
-0.00100405 0.120643 0.0328064 0 255 0
-0.000328634 0.12059 0.0325834 0 255 0
0.000231335 0.120557 0.0325861 0 255 0
0.000849022 0.120514 0.0324759 0 255 0
0.00146671 0.120471 0.0323658 0 255 0
0.00214213 0.120419 0.0321427 0 255 0
0.00270209 0.120386 0.0321455 0 255 0
0.0033775 0.120333 0.0319224 0 255 0
0.00393747 0.1203 0.0319251 0 255 0
0.00461288 0.120247 0.0317021 0 255 0
0.00523057 0.120204 0.031592 0 255 0
0.00607916 0.120123 0.0310302 0 255 0
0.00692775 0.120042 0.0304685 0 255 0
0.00754544 0.119999 0.0303584 0 255 0
0.00816313 0.119956 0.0302482 0 255 0
0.00878081 0.119913 0.0301381 0 255 0
0.0093985 0.11987 0.0300279 0 255 0
0.0101317 0.119808 0.029692 0 255 0
0.011038 0.119717 0.0290174 0 255 0
0.0118866 0.119636 0.0284557 0 255 0
0.012562 0.119583 0.0282327 0 255 0
0.0137569 0.119444 0.0269936 0 255 0
0.0141437 0.11944 0.027335 0 255 0
0.0145882 0.119426 0.0275635 0 255 0
0.0150905 0.119402 0.0276791 0 255 0
0.0158236 0.11934 0.0273432 0 255 0
0.0163258 0.119316 0.0274588 0 255 0
0.0168858 0.119283 0.0274615 0 255 0
0.017388 0.119259 0.0275772 0 255 0
0.0178325 0.119245 0.0278057 0 255 0
0.0182193 0.119241 0.0281471 0 255 0
0.0185484 0.119246 0.0286013 0 255 0
0.0189929 0.119232 0.0288298 0 255 0
0.019322 0.119237 0.0292841 0 255 0
0.0197087 0.119233 0.0296255 0 255 0
0.0201533 0.119219 0.029854 0 255 0
0.0204823 0.119224 0.0303083 0 255 0
0.0208691 0.11922 0.0306496 0 255 0
0.0211982 0.119225 0.0311039 0 255 0
0.0217004 0.119202 0.0312195 0 255 0
0.0221449 0.119188 0.031448 0 255 0
0.0228781 0.119125 0.0311121 0 255 0
0.0233226 0.119111 0.0313406 0 255 0
0.0235939 0.119126 0.0319078 0 255 0
0.023923 0.119131 0.032362 0 255 0
0.0241943 0.119146 0.0329292 0 255 0
0.0245811 0.119142 0.0332706 0 255 0
0.0250833 0.119118 0.0333862 0 255 0
0.0255856 0.119095 0.0335018 0 255 0
0.0260301 0.119081 0.0337303 0 255 0
0.0265323 0.119057 0.0338459 0 255 0
0.0272077 0.119005 0.0336229 0 255 0
0.0274213 0.119029 0.0343029 0 255 0
0.0278659 0.119015 0.0345314 0 255 0
0.0283104 0.119001 0.0347599 0 255 0
0.0288703 0.118968 0.0347627 0 255 0
0.0293148 0.118954 0.0349912 0 255 0
0.0303943 0.118834 0.0339779 0 255 0
0.031012 0.118791 0.0338678 0 255 0
0.0314565 0.118777 0.0340963 0 255 0
0.032536 0.118657 0.033083 0 255 0
0.0333269 0.118585 0.0326342 0 255 0
0.0335232 0.118673 0.0344458 0 255 0
0.0337946 0.118688 0.035013 0 255 0
0.0342968 0.118664 0.0351286 0 255 0
-0.039819 0.12121 -0.0125472 0 255 0
-0.0395476 0.121225 -0.0119801 0 255 0
-0.0391031 0.121211 -0.0117516 0 255 0
-0.0386009 0.121187 -0.011636 0 255 0
-0.0381564 0.121173 -0.0114075 0 255 0
-0.0377696 0.121169 -0.0110661 0 255 0
-0.0372674 0.121145 -0.0109505 0 255 0
-0.0366497 0.121103 -0.0110606 0 255 0
-0.0359742 0.121051 -0.0112837 0 255 0
-0.0357029 0.121065 -0.0107165 0 255 0
-0.0353161 0.121061 -0.0103751 0 255 0
-0.0349871 0.121066 -0.00992084 0 255 0
-0.0348312 0.1211 -0.00912793 0 255 0
-0.0346176 0.121124 -0.00844788 0 255 0
-0.0332781 0.121855 0.00649667 0 255 0
-0.0330645 0.121879 0.0071767 0 255 0
-0.0328509 0.121903 0.00785674 0 255 0
-0.032695 0.121937 0.00864969 0 255 0
-0.0324237 0.121952 0.00921683 0 255 0
-0.0320947 0.121957 0.00967112 0 255 0
-0.0319965 0.122 0.0105769 0 255 0
-0.0318984 0.122043 0.0114827 0 255 0
-0.0317425 0.122077 0.0122757 0 255 0
-0.0315289 0.122101 0.0129557 0 255 0
-0.0312576 0.122116 0.0135229 0 255 0
-0.031044 0.12214 0.0142029 0 255 0
-0.0307726 0.122155 0.0147701 0 255 0
-0.030559 0.122179 0.0154501 0 255 0
-0.0302877 0.122194 0.0160173 0 255 0
-0.0300164 0.122208 0.0165844 0 255 0
-0.0296873 0.122213 0.0170387 0 255 0
-0.029416 0.122228 0.0176058 0 255 0
-0.0290869 0.122233 0.0180601 0 255 0
-0.0287579 0.122238 0.0185144 0 255 0
-0.0283711 0.122234 0.0188558 0 255 0
-0.0279843 0.122229 0.0191971 0 255 0
-0.0275975 0.122225 0.0195386 0 255 0
-0.0272107 0.12222 0.0198799 0 255 0
-0.0267662 0.122206 0.0201084 0 255 0
-0.0262062 0.122173 0.0201112 0 255 0
-0.0257617 0.122159 0.0203397 0 255 0
-0.0252595 0.122136 0.0204553 0 255 0
-0.0247572 0.122112 0.0205709 0 255 0
-0.0243127 0.122098 0.0207994 0 255 0
-0.023695 0.122055 0.0206893 0 255 0
-0.0230196 0.122003 0.0204662 0 255 0
-0.0225174 0.12198 0.0205818 0 255 0
-0.0220151 0.121956 0.0206974 0 255 0
-0.0215706 0.121942 0.0209259 0 255 0
-0.0212416 0.121947 0.0213802 0 255 0
-0.021028 0.121971 0.0220603 0 255 0
-0.0208721 0.122005 0.0228532 0 255 0
-0.020543 0.12201 0.0233074 0 255 0
-0.0201562 0.122006 0.0236488 0 255 0
-0.0199426 0.12203 0.0243289 0 255 0
-0.0196136 0.122035 0.0247831 0 255 0
-0.0191691 0.122021 0.0250116 0 255 0
-0.01884 0.122026 0.0254659 0 255 0
-0.0184532 0.122022 0.0258073 0 255 0
-0.0180087 0.122008 0.0260358 0 255 0
-0.0176219 0.122003 0.0263772 0 255 0
-0.0171774 0.121989 0.0266057 0 255 0
-0.0167906 0.121985 0.0269471 0 255 0
-0.0162884 0.121961 0.0270627 0 255 0
-0.0158439 0.121947 0.0272912 0 255 0
-0.0154571 0.121943 0.0276326 0 255 0
-0.0148971 0.12191 0.0276353 0 255 0
-0.0144526 0.121896 0.0278638 0 255 0
-0.0137772 0.121843 0.0276408 0 255 0
-0.013275 0.12182 0.0277564 0 255 0
-0.0125995 0.121768 0.0275333 0 255 0
-0.0119818 0.121725 0.0274232 0 255 0
-0.0115951 0.12172 0.0277646 0 255 0
-0.011266 0.121725 0.0282188 0 255 0
-0.0109369 0.121731 0.0286731 0 255 0
-0.0106079 0.121736 0.0291274 0 255 0
-0.0103366 0.12175 0.0296945 0 255 0
-0.00994977 0.121746 0.0300359 0 255 0
-0.00956299 0.121741 0.0303773 0 255 0
-0.00923392 0.121746 0.0308316 0 255 0
-0.00884714 0.121742 0.031173 0 255 0
-0.00840263 0.121728 0.0314015 0 255 0
-0.00801585 0.121724 0.0317429 0 255 0
-0.00757134 0.12171 0.0319714 0 255 0
-0.00712682 0.121696 0.0321999 0 255 0
-0.00668231 0.121682 0.0324284 0 255 0
-0.00612234 0.121648 0.0324311 0 255 0
-0.00573556 0.121644 0.0327725 0 255 0
-0.00529104 0.12163 0.033001 0 255 0
-0.00467335 0.121587 0.0328908 0 255 0
-0.00417111 0.121564 0.0330064 0 255 0
-0.00361115 0.121531 0.0330092 0 255 0
-0.00299345 0.121488 0.032899 0 255 0
-0.00243348 0.121455 0.0329017 0 255 0
-0.00181579 0.121412 0.0327916 0 255 0
-0.00131354 0.121389 0.0329072 0 255 0
-0.000580404 0.121327 0.0325713 0 255 0
-7.81586e-05 0.121303 0.0326869 0 255 0
0.000597266 0.121251 0.0324638 0 255 0
0.00115724 0.121218 0.0324666 0 255 0
0.00194811 0.121147 0.0320178 0 255 0
0.00262353 0.121094 0.0317947 0 255 0
0.00335668 0.121033 0.0314588 0 255 0
0.00391665 0.121 0.0314615 0 255 0
0.00447661 0.120966 0.0314642 0 255 0
0.00503658 0.120933 0.031467 0 255 0
0.00576972 0.120872 0.0311311 0 255 0
0.00644515 0.120819 0.030908 0 255 0
0.0075824 0.120691 0.0297819 0 255 0
0.00814236 0.120658 0.0297846 0 255 0
0.00870233 0.120624 0.0297873 0 255 0
0.00932002 0.120582 0.0296772 0 255 0
0.0100532 0.12052 0.0293413 0 255 0
0.0108441 0.120449 0.0288924 0 255 0
0.0115772 0.120387 0.0285565 0 255 0
0.0124258 0.120306 0.0279948 0 255 0
0.0136208 0.120168 0.0267558 0 255 0
0.014123 0.120144 0.0268714 0 255 0
0.0145675 0.12013 0.0270999 0 255 0
0.015012 0.120116 0.0273284 0 255 0
0.0157452 0.120054 0.0269925 0 255 0
0.0163629 0.120012 0.0268824 0 255 0
0.0168651 0.119988 0.026998 0 255 0
0.0174251 0.119955 0.0270007 0 255 0
0.0179273 0.119932 0.0271163 0 255 0
0.0183141 0.119927 0.0274577 0 255 0
0.0187009 0.119923 0.0277991 0 255 0
0.0190877 0.119918 0.0281405 0 255 0
0.0195322 0.119904 0.028369 0 255 0
0.019919 0.1199 0.0287104 0 255 0
0.0204789 0.119867 0.0287131 0 255 0
0.0209235 0.119853 0.0289416 0 255 0
0.0213102 0.119848 0.029283 0 255 0
0.0215816 0.119863 0.0298501 0 255 0
0.0220261 0.119849 0.0300786 0 255 0
0.0222974 0.119863 0.0306458 0 255 0
0.0229151 0.119821 0.0305356 0 255 0
0.0233019 0.119816 0.030877 0 255 0
0.023631 0.119821 0.0313313 0 255 0
0.0240177 0.119817 0.0316727 0 255 0
0.0242891 0.119832 0.0322398 0 255 0
0.0246758 0.119827 0.0325812 0 255 0
0.0251781 0.119804 0.0326968 0 255 0
0.0256226 0.11979 0.0329253 0 255 0
0.0260094 0.119785 0.0332667 0 255 0
0.0266848 0.119733 0.0330437 0 255 0
0.0272448 0.1197 0.0330464 0 255 0
0.028382 0.119571 0.0319203 0 255 0
0.0288265 0.119557 0.0321488 0 255 0
0.0294442 0.119514 0.0320386 0 255 0
0.029831 0.11951 0.03238 0 255 0
0.0302178 0.119506 0.0327214 0 255 0
0.0305468 0.119511 0.0331757 0 255 0
0.0308759 0.119516 0.0336299 0 255 0
0.0313204 0.119502 0.0338584 0 255 0
0.0323999 0.119383 0.0328452 0 255 0
0.0329599 0.119349 0.0328479 0 255 0
0.0337508 0.119278 0.0323991 0 255 0
0.0352344 0.119092 0.0305957 0 255 0
0.0356212 0.119088 0.0309371 0 255 0
-0.0383328 0.121851 -0.0126639 0 255 0
-0.0354925 0.121738 -0.0116316 0 255 0
-0.0351057 0.121734 -0.0112902 0 255 0
-0.0347767 0.121739 -0.0108359 0 255 0
-0.0346785 0.121781 -0.00993012 0 255 0
-0.0343495 0.121786 -0.00947584 0 255 0
-0.0335009 0.122296 0.000939588 0 255 0
-0.0334605 0.122348 0.00195829 0 255 0
-0.0333046 0.122382 0.00275121 0 255 0
-0.0329178 0.122377 0.00309261 0 255 0
-0.0330275 0.122572 0.00660023 0 255 0
-0.0328139 0.122596 0.00728025 0 255 0
-0.0326581 0.12263 0.00807318 0 255 0
-0.0323867 0.122644 0.00864034 0 255 0
-0.0320577 0.122649 0.00909462 0 255 0
-0.0319596 0.122692 0.0100004 0 255 0
-0.0318614 0.122735 0.0109062 0 255 0
-0.0317056 0.122768 0.0116992 0 255 0
-0.031492 0.122792 0.0123792 0 255 0
-0.0312206 0.122807 0.0129463 0 255 0
-0.031007 0.12283 0.0136264 0 255 0
-0.0307357 0.122845 0.0141935 0 255 0
-0.0305221 0.122869 0.0148736 0 255 0
-0.0302508 0.122883 0.0154407 0 255 0
-0.0300372 0.122907 0.0161208 0 255 0
-0.0297081 0.122912 0.016575 0 255 0
-0.0294368 0.122927 0.0171422 0 255 0
-0.0291078 0.122931 0.0175965 0 255 0
-0.028721 0.122927 0.0179379 0 255 0
-0.0283919 0.122932 0.0183921 0 255 0
-0.0280629 0.122937 0.0188464 0 255 0
-0.0276184 0.122923 0.0190749 0 255 0
-0.0272316 0.122918 0.0194163 0 255 0
-0.0267871 0.122904 0.0196448 0 255 0
-0.0262848 0.122881 0.0197604 0 255 0
-0.0258403 0.122867 0.0199889 0 255 0
-0.0252226 0.122824 0.0198787 0 255 0
-0.0248358 0.12282 0.0202201 0 255 0
-0.0242181 0.122777 0.02011 0 255 0
-0.0237159 0.122754 0.0202256 0 255 0
-0.0230405 0.122702 0.0200025 0 255 0
-0.0226537 0.122697 0.0203439 0 255 0
-0.0222669 0.122693 0.0206853 0 255 0
-0.0219378 0.122698 0.0211396 0 255 0
-0.0218397 0.122741 0.0220454 0 255 0
-0.0215684 0.122755 0.0226126 0 255 0
-0.0212393 0.12276 0.0230668 0 255 0
-0.020968 0.122775 0.023634 0 255 0
-0.0206967 0.122789 0.0242011 0 255 0
-0.0203676 0.122794 0.0246554 0 255 0
-0.0200386 0.122799 0.0251097 0 255 0
-0.0195941 0.122785 0.0253382 0 255 0
-0.0192073 0.12278 0.0256795 0 255 0
-0.0188205 0.122776 0.0260209 0 255 0
-0.0184337 0.122771 0.0263623 0 255 0
-0.0179892 0.122757 0.0265908 0 255 0
-0.0176024 0.122753 0.0269322 0 255 0
-0.0171579 0.122739 0.0271607 0 255 0
-0.0167711 0.122734 0.0275021 0 255 0
-0.0163266 0.12272 0.0277306 0 255 0
-0.0158244 0.122697 0.0278462 0 255 0
-0.0153798 0.122683 0.0280747 0 255 0
-0.0148776 0.122659 0.0281903 0 255 0
-0.0143754 0.122636 0.0283059 0 255 0
-0.0137577 0.122593 0.0281958 0 255 0
-0.0131977 0.12256 0.0281985 0 255 0
-0.0126377 0.122527 0.0282013 0 255 0
-0.0119046 0.122466 0.0278653 0 255 0
-0.0113446 0.122433 0.0278681 0 255 0
-0.0109578 0.122428 0.0282095 0 255 0
-0.0105133 0.122414 0.028438 0 255 0
-0.010242 0.122429 0.0290051 0 255 0
-0.00997066 0.122443 0.0295723 0 255 0
-0.00958387 0.122439 0.0299137 0 255 0
-0.00925482 0.122444 0.0303679 0 255 0
-0.00886803 0.122439 0.0307093 0 255 0
-0.00848125 0.122435 0.0310507 0 255 0
-0.00809446 0.12243 0.0313921 0 255 0
-0.00770768 0.122426 0.0317335 0 255 0
-0.00726317 0.122412 0.031962 0 255 0
-0.00681866 0.122398 0.0321905 0 255 0
-0.00637414 0.122384 0.032419 0 255 0
-0.0058719 0.12236 0.0325346 0 255 0
-0.00542739 0.122346 0.0327631 0 255 0
-0.00492515 0.122323 0.0328787 0 255 0
-0.00436518 0.12229 0.0328814 0 255 0
-0.00386294 0.122266 0.032997 0 255 0
-0.00324523 0.122224 0.0328869 0 255 0
-0.00268527 0.122191 0.0328896 0 255 0
-0.00212529 0.122158 0.0328923 0 255 0
-0.00144986 0.122106 0.0326693 0 255 0
-0.00094763 0.122082 0.0327849 0 255 0
-0.000272199 0.12203 0.0325619 0 255 0
0.000287781 0.121997 0.0325646 0 255 0
0.000963207 0.121945 0.0323416 0 255 0
0.00163863 0.121893 0.0321185 0 255 0
0.00242953 0.121823 0.0316697 0 255 0
0.00316268 0.121761 0.0313338 0 255 0
0.00378038 0.121719 0.0312236 0 255 0
0.00439808 0.121676 0.0311135 0 255 0
0.00501578 0.121634 0.0310033 0 255 0
0.00557575 0.121601 0.0310061 0 255 0
0.00625118 0.121549 0.030783 0 255 0
0.00686888 0.121506 0.0306729 0 255 0
0.00817933 0.12135 0.0292081 0 255 0
0.00873931 0.121317 0.0292108 0 255 0
0.00929928 0.121284 0.0292136 0 255 0
0.00991697 0.121242 0.0291034 0 255 0
0.0105347 0.121199 0.0289933 0 255 0
0.0113833 0.121119 0.0284316 0 255 0
0.0124051 0.12101 0.0275312 0 255 0
0.0135424 0.120882 0.0264051 0 255 0
0.0139869 0.120868 0.0266336 0 255 0
0.0144891 0.120845 0.0267492 0 255 0
0.0149914 0.120821 0.0268648 0 255 0
0.0156091 0.120779 0.0267547 0 255 0
0.0163422 0.120717 0.0264188 0 255 0
0.0168445 0.120694 0.0265344 0 255 0
0.0174044 0.120661 0.0265371 0 255 0
0.0179644 0.120628 0.0265399 0 255 0
0.0184666 0.120604 0.0266555 0 255 0
0.0188534 0.1206 0.0269969 0 255 0
0.0193557 0.120576 0.0271125 0 255 0
0.0197424 0.120572 0.0274539 0 255 0
0.020187 0.120558 0.0276824 0 255 0
0.0206315 0.120544 0.0279109 0 255 0
0.0211337 0.12052 0.0280265 0 255 0
0.021405 0.120535 0.0285936 0 255 0
0.0217341 0.12054 0.0290479 0 255 0
0.0220631 0.120545 0.0295021 0 255 0
0.0224499 0.12054 0.0298435 0 255 0
0.0228367 0.120536 0.0301849 0 255 0
0.0232812 0.120522 0.0304134 0 255 0
0.023668 0.120517 0.0307548 0 255 0
0.0241702 0.120494 0.0308704 0 255 0
0.024557 0.120489 0.0312118 0 255 0
